x,y,z,r,g,b
-0.961366,-0.060680,1.082725,120,121,117
-0.956036,-0.060680,1.082725,127,124,126
-0.950705,-0.060680,1.082725,125,128,127
-0.945874,-0.060712,1.083297,143,134,131
-0.940044,-0.060680,1.082725,133,143,145
-0.935207,-0.060712,1.083297,136,135,138
-0.929874,-0.060712,1.083297,147,140,145
-0.925029,-0.060744,1.083869,144,146,135
-0.920179,-0.060776,1.084442,150,152,146
-0.914840,-0.060776,1.084442,156,152,161
-0.909501,-0.060776,1.084442,156,152,156
-0.903684,-0.060744,1.083869,151,163,163
-0.898348,-0.060744,1.083869,154,155,160
-0.893012,-0.060744,1.083869,157,158,164
-0.888145,-0.060776,1.084442,163,163,157
-0.883272,-0.060808,1.085016,161,161,175
-0.877931,-0.060808,1.085016,158,166,160
-0.872127,-0.060776,1.084442,162,164,176
-0.866331,-0.060744,1.083869,162,166,171
-0.861905,-0.060808,1.085016,173,177,168
-0.857016,-0.060840,1.085590,174,172,170
-0.851672,-0.060840,1.085590,164,174,174
-0.846327,-0.060840,1.085590,171,169,180
-0.840982,-0.060840,1.085590,178,174,175
-0.835638,-0.060840,1.085590,172,175,178
-0.831173,-0.060905,1.086740,174,170,175
-0.827137,-0.061001,1.088469,172,176,170
-0.821778,-0.061001,1.088469,172,175,170
-0.816852,-0.061034,1.089047,174,177,178
-0.811491,-0.061034,1.089047,173,177,176
-0.806986,-0.061099,1.090204,172,172,189
-0.802471,-0.061164,1.091364,173,180,180
-0.797522,-0.061196,1.091945,182,179,177
-0.792568,-0.061229,1.092526,174,180,173
-0.787189,-0.061229,1.092526,173,172,183
-0.782227,-0.061261,1.093108,178,172,184
-0.777259,-0.061294,1.093691,182,178,180
-0.772286,-0.061327,1.094274,176,177,181
-0.766899,-0.061327,1.094274,176,182,172
-0.761918,-0.061360,1.094858,187,182,182
-0.757336,-0.061425,1.096028,180,180,184
-0.752342,-0.061458,1.096614,186,181,184
-0.746943,-0.061458,1.096614,179,184,175
-0.741940,-0.061491,1.097200,187,182,186
-0.736539,-0.061491,1.097200,189,182,184
-0.731528,-0.061524,1.097787,183,184,200
-0.726512,-0.061557,1.098375,186,180,192
-0.721491,-0.061590,1.098963,181,185,192
-0.716848,-0.061656,1.100142,186,186,188
-0.711432,-0.061656,1.100142,184,187,183
-0.706394,-0.061689,1.100732,189,185,185
-0.700975,-0.061689,1.100732,181,183,194
-0.695929,-0.061722,1.101323,184,188,189
-0.690507,-0.061722,1.101323,183,188,183
-0.685453,-0.061755,1.101914,180,187,178
-0.680028,-0.061755,1.101914,183,184,184
-0.674241,-0.061722,1.101323,191,180,189
-0.668818,-0.061722,1.101323,191,190,186
-0.663040,-0.061689,1.100732,186,187,196
-0.657269,-0.061656,1.100142,181,183,196
-0.651852,-0.061656,1.100142,181,190,190
-0.646090,-0.061623,1.099552,188,189,187
-0.640676,-0.061623,1.099552,186,187,204
-0.635263,-0.061623,1.099552,186,185,193
-0.629175,-0.061557,1.098375,176,184,190
-0.624102,-0.061590,1.098963,187,183,192
-0.619023,-0.061623,1.099552,189,180,182
-0.614268,-0.061689,1.100732,192,182,184
-0.608848,-0.061689,1.100732,187,185,187
-0.603753,-0.061722,1.101323,184,182,187
-0.598331,-0.061722,1.101323,184,184,182
-0.593227,-0.061755,1.101914,178,184,186
-0.587487,-0.061722,1.101323,185,178,183
-0.582377,-0.061755,1.101914,178,188,193
-0.576642,-0.061722,1.101323,189,188,180
-0.571527,-0.061755,1.101914,185,185,185
-0.566711,-0.061821,1.103099,183,184,185
-0.561582,-0.061855,1.103693,188,182,180
-0.556747,-0.061921,1.104881,186,184,184
-0.551902,-0.061988,1.106073,187,190,193
-0.546751,-0.062021,1.106669,185,183,184
-0.541595,-0.062055,1.107266,184,185,185
-0.536433,-0.062088,1.107864,173,183,196
-0.531553,-0.062156,1.109062,184,182,181
-0.526662,-0.062223,1.110262,184,175,185
-0.521478,-0.062257,1.110863,185,181,180
-0.516288,-0.062290,1.111465,180,182,199
-0.510816,-0.062290,1.111465,185,183,175
-0.505892,-0.062358,1.112671,184,182,177
-0.500686,-0.062392,1.113274,180,185,180
-0.495743,-0.062459,1.114484,188,180,183
-0.491056,-0.062561,1.116303,182,184,180
-0.485560,-0.062561,1.116303,185,181,181
-0.480587,-0.062630,1.117519,186,184,177
-0.475344,-0.062664,1.118128,180,181,185
-0.469839,-0.062664,1.118128,184,177,182
-0.464335,-0.062664,1.118128,183,172,180
-0.458580,-0.062630,1.117519,187,178,187
-0.453078,-0.062630,1.117519,191,180,177
-0.447820,-0.062664,1.118128,176,173,177
-0.442556,-0.062698,1.118737,182,177,176
-0.437048,-0.062698,1.118737,176,185,178
-0.431541,-0.062698,1.118737,180,178,178
-0.426265,-0.062732,1.119348,179,172,184
-0.421214,-0.062801,1.120570,179,173,178
-0.416379,-0.062904,1.122409,179,170,188
-0.411303,-0.062973,1.123639,173,168,178
-0.405994,-0.063007,1.124255,175,169,170
-0.400898,-0.063076,1.125488,176,170,169
-0.395574,-0.063111,1.126106,125,123,127
-0.390458,-0.063180,1.127343,53,47,53
-0.384697,-0.063145,1.126724,63,63,60
-0.379149,-0.063145,1.126724,30,34,41
-0.373808,-0.063180,1.127343,16,16,21
-0.368663,-0.063250,1.128583,13,15,15
-0.362707,-0.063180,1.127343,10,14,16
-0.357157,-0.063180,1.127343,22,23,20
-0.351994,-0.063250,1.128583,23,19,18
-0.346247,-0.063215,1.127963,22,22,22
-0.340881,-0.063250,1.128583,21,16,19
-0.335694,-0.063319,1.129826,20,20,20
-0.330313,-0.063354,1.130449,18,19,21
-0.324748,-0.063354,1.130449,18,18,24
-0.319358,-0.063389,1.131072,18,19,19
-0.313790,-0.063389,1.131072,23,18,19
-0.308391,-0.063424,1.131696,16,17,18
-0.302987,-0.063459,1.132320,16,19,26
-0.297576,-0.063494,1.132946,20,19,18
-0.292160,-0.063529,1.133572,22,19,16
-0.286737,-0.063564,1.134198,22,20,21
-0.281309,-0.063599,1.134825,23,19,21
-0.275874,-0.063635,1.135454,21,17,21
-0.270434,-0.063670,1.136082,19,15,17
-0.264987,-0.063705,1.136712,21,20,17
-0.259535,-0.063740,1.137342,16,18,23
-0.253935,-0.063740,1.137342,20,17,21
-0.248473,-0.063776,1.137973,18,16,19
-0.242736,-0.063740,1.137342,19,17,21
-0.237137,-0.063740,1.137342,19,17,15
-0.231666,-0.063776,1.137973,19,17,25
-0.225938,-0.063740,1.137342,21,22,20
-0.220338,-0.063740,1.137342,22,20,26
-0.214739,-0.063740,1.137342,20,18,23
-0.209139,-0.063740,1.137342,20,20,24
-0.203766,-0.063811,1.138604,17,18,22
-0.198270,-0.063847,1.139236,18,17,20
-0.192769,-0.063882,1.139869,23,17,19
-0.187261,-0.063918,1.140503,21,18,21
-0.181646,-0.063918,1.140503,21,20,25
-0.176227,-0.063989,1.141772,17,21,25
-0.170605,-0.063989,1.141772,25,20,21
-0.164984,-0.063989,1.141772,21,18,22
-0.159452,-0.064024,1.142408,20,23,22
-0.153827,-0.064024,1.142408,23,20,23
-0.148616,-0.064203,1.145597,10,8,11
-0.143377,-0.064383,1.148804,10,11,7
-0.137952,-0.064491,1.150737,14,13,14
-0.132361,-0.064527,1.151383,19,16,17
-0.126835,-0.064600,1.152677,16,17,14
-0.121160,-0.064600,1.152677,15,16,14
-0.115485,-0.064600,1.152677,22,19,21
-0.109934,-0.064673,1.153973,19,21,20
-0.104252,-0.064673,1.153973,15,16,22
-0.098682,-0.064745,1.155273,15,18,22
-0.092994,-0.064745,1.155273,17,16,17
-0.087307,-0.064745,1.155273,19,16,17
-0.081619,-0.064745,1.155273,20,18,21
-0.075931,-0.064745,1.155273,16,16,18
-0.070243,-0.064745,1.155273,19,16,19
-0.064556,-0.064745,1.155273,21,15,18
-0.058934,-0.064818,1.156575,16,19,24
-0.053240,-0.064818,1.156575,18,16,14
-0.047546,-0.064818,1.156575,21,16,17
-0.041923,-0.064928,1.158534,21,16,16
-0.036280,-0.065038,1.160500,26,20,17
-0.030310,-0.064491,1.150737,91,88,95
-0.023523,-0.061557,1.098375,179,182,182
-0.017914,-0.060872,1.086164,183,179,186
-0.012415,-0.060140,1.073099,182,184,173
-0.007099,-0.059858,1.068071,191,181,188
-0.001836,-0.059703,1.065298,181,179,176
0.003409,-0.059703,1.065298,179,174,170
0.008631,-0.059548,1.062540,162,155,162
0.013784,-0.059211,1.056521,150,148,149
0.018898,-0.058938,1.051648,143,135,141
0.023990,-0.058727,1.047888,139,136,142
0.029089,-0.058607,1.045752,129,131,140
0.034151,-0.058458,1.043093,126,122,122
0.039127,-0.058222,1.038868,129,118,120
0.044063,-0.057987,1.034677,107,109,108
0.049058,-0.057870,1.032594,104,103,103
0.053952,-0.057667,1.028969,109,100,103
0.058782,-0.057436,1.024857,103,92,96
0.063605,-0.057236,1.021286,89,92,93
0.068463,-0.057094,1.018751,83,80,87
0.073297,-0.056953,1.016228,76,77,77
0.078145,-0.056840,1.014219,72,63,76
0.082974,-0.056728,1.012217,67,63,62
0.087828,-0.056644,1.010721,69,62,66
0.092712,-0.056588,1.009727,60,57,58
0.097492,-0.056477,1.007743,61,55,59
0.102403,-0.056450,1.007248,69,57,62
0.107309,-0.056422,1.006754,61,59,62
0.112210,-0.056394,1.006260,67,64,64
0.117107,-0.056367,1.005767,66,69,62
0.121999,-0.056339,1.005274,69,65,63
0.127010,-0.056367,1.005767,74,69,71
0.131962,-0.056367,1.005767,82,80,73
0.136847,-0.056339,1.005274,81,75,73
0.141865,-0.056367,1.005767,75,68,72
0.146817,-0.056367,1.005767,72,66,69
0.151918,-0.056422,1.006754,65,70,65
0.156951,-0.056450,1.007248,71,66,68
0.161990,-0.056477,1.007743,66,63,67
0.167197,-0.056561,1.009230,63,60,61
0.172336,-0.056616,1.010224,54,55,60
0.177572,-0.056700,1.011718,54,49,54
0.182733,-0.056756,1.012717,53,48,44
0.187997,-0.056840,1.014219,48,48,43
0.193181,-0.056896,1.015222,52,44,53
0.198474,-0.056981,1.016732,45,46,46
0.203884,-0.057094,1.018751,47,42,38
0.209419,-0.057236,1.021286,45,42,40
0.214875,-0.057351,1.023324,43,39,39
0.220353,-0.057465,1.025370,45,40,37
0.225966,-0.057609,1.027938,42,33,35
0.231840,-0.057812,1.031556,40,33,33
0.237755,-0.058016,1.035199,36,36,33
0.244083,-0.058310,1.040449,39,32,33
0.250731,-0.058667,1.046819,33,30,34
0.257462,-0.059029,1.053267,29,34,26
0.264275,-0.059395,1.059796,29,29,28
0.271174,-0.059765,1.066406,28,26,26
0.278450,-0.060203,1.074222,27,27,23
0.286589,-0.060808,1.085016,28,28,24
0.295368,-0.061524,1.097787,27,26,20
0.304520,-0.062290,1.111465,27,23,23
0.312702,-0.062835,1.121183,25,24,26
0.320322,-0.063250,1.128583,28,27,23
0.328408,-0.063740,1.137342,22,19,16
0.336620,-0.064239,1.146237,11,8,10
0.342837,-0.064347,1.148162,10,7,7
0.348881,-0.064419,1.149448,9,8,5
0.354937,-0.064491,1.150737,6,9,3
0.360805,-0.064527,1.151383,7,7,11
0.366474,-0.064527,1.151383,10,6,7
0.372560,-0.064600,1.152677,9,7,5
0.378235,-0.064600,1.152677,12,8,8
0.384126,-0.064636,1.153325,12,9,9
0.389804,-0.064636,1.153325,7,10,10
0.395928,-0.064709,1.154623,10,8,6
0.401838,-0.064745,1.155273,11,10,5
0.407526,-0.064745,1.155273,8,9,13
0.413214,-0.064745,1.155273,10,9,11
0.418901,-0.064745,1.155273,12,12,10
0.424589,-0.064745,1.155273,13,9,6
0.430277,-0.064745,1.155273,12,11,14
0.436456,-0.064818,1.156575,12,11,16
0.442150,-0.064818,1.156575,9,12,10
0.448097,-0.064855,1.157228,13,9,15
0.454050,-0.064892,1.157881,12,9,13
0.459751,-0.064892,1.157881,12,9,16
0.465714,-0.064928,1.158534,14,13,13
0.471418,-0.064928,1.158534,12,11,13
0.476853,-0.064892,1.157881,13,12,6
0.482281,-0.064855,1.157228,12,10,15
0.487978,-0.064855,1.157228,10,11,14
0.492842,-0.064745,1.155273,12,12,9
0.498530,-0.064745,1.155273,13,13,11
0.503934,-0.064709,1.154623,12,13,10
0.509045,-0.064636,1.153325,12,12,11
0.514434,-0.064600,1.152677,13,14,16
0.520109,-0.064600,1.152677,13,14,12
0.525784,-0.064600,1.152677,11,12,17
0.531161,-0.064564,1.152030,17,13,15
0.536832,-0.064564,1.152030,14,14,16
0.542504,-0.064564,1.152030,15,13,16
0.548176,-0.064564,1.152030,13,16,15
0.553848,-0.064564,1.152030,13,14,9
0.559519,-0.064564,1.152030,15,14,17
0.564874,-0.064527,1.151383,13,15,16
0.570223,-0.064491,1.150737,15,15,19
0.576211,-0.064527,1.151383,14,15,17
0.581553,-0.064491,1.150737,20,14,16
0.587219,-0.064491,1.150737,21,16,14
0.592884,-0.064491,1.150737,17,13,18
0.598550,-0.064491,1.150737,15,16,19
0.603876,-0.064455,1.150092,18,19,20
0.609197,-0.064419,1.149448,24,19,26
0.614168,-0.064347,1.148162,45,45,43
0.619474,-0.064311,1.147519,78,76,69
0.624774,-0.064275,1.146878,102,102,103
0.630421,-0.064275,1.146878,127,122,107
0.636067,-0.064275,1.146878,121,122,116
0.641713,-0.064275,1.146878,121,121,126
0.647360,-0.064275,1.146878,121,118,115
0.653371,-0.064311,1.147519,117,121,122
0.659390,-0.064347,1.148162,117,116,120
0.665042,-0.064347,1.148162,114,119,126
0.671071,-0.064383,1.148804,119,118,116
0.676727,-0.064383,1.148804,121,121,118
0.682765,-0.064419,1.149448,119,125,127
0.688810,-0.064455,1.150092,127,117,116
0.694861,-0.064491,1.150737,118,116,119
0.700920,-0.064527,1.151383,125,118,109
0.705796,-0.064455,1.150092,103,112,103
0.711459,-0.064455,1.150092,45,35,44
0.716719,-0.064419,1.149448,14,15,21
0.723188,-0.064491,1.150737,17,13,17
0.728445,-0.064455,1.150092,14,17,13
0.734519,-0.064491,1.150737,17,12,11
0.740185,-0.064491,1.150737,12,14,12
0.745850,-0.064491,1.150737,11,14,10
0.751094,-0.064455,1.150092,14,15,18
0.756332,-0.064419,1.149448,14,15,12
0.764561,-0.064636,1.153325,41,49,57
-1.020541,-0.055378,1.083297,80,80,87
-1.015208,-0.055378,1.083297,81,88,81
-1.009874,-0.055378,1.083297,88,85,89
-1.004541,-0.055378,1.083297,88,90,84
-0.999207,-0.055378,1.083297,93,92,85
-0.993874,-0.055378,1.083297,91,95,96
-0.989063,-0.055407,1.083869,100,97,93
-0.983207,-0.055378,1.083297,103,102,103
-0.978391,-0.055407,1.083869,109,107,106
-0.972541,-0.055378,1.083297,103,110,109
-0.967207,-0.055378,1.083297,113,113,113
-0.962382,-0.055407,1.083869,110,118,119
-0.956540,-0.055378,1.083297,122,128,117
-0.951207,-0.055378,1.083297,137,118,127
-0.946374,-0.055407,1.083869,134,134,132
-0.940540,-0.055378,1.083297,137,135,134
-0.935207,-0.055378,1.083297,131,136,137
-0.929874,-0.055378,1.083297,142,143,143
-0.925029,-0.055407,1.083869,146,145,148
-0.920179,-0.055437,1.084442,151,149,148
-0.915323,-0.055466,1.085016,152,150,148
-0.909501,-0.055437,1.084442,149,148,151
-0.903684,-0.055407,1.083869,152,155,160
-0.898348,-0.055407,1.083869,159,153,157
-0.892540,-0.055378,1.083297,158,157,162
-0.888145,-0.055437,1.084442,157,154,166
-0.883272,-0.055466,1.085016,163,163,155
-0.877931,-0.055466,1.085016,164,160,152
-0.872589,-0.055466,1.085016,163,161,167
-0.866789,-0.055437,1.084442,165,158,171
-0.861905,-0.055466,1.085016,165,165,170
-0.857016,-0.055495,1.085590,162,165,169
-0.852123,-0.055525,1.086164,171,166,165
-0.846775,-0.055525,1.086164,165,171,168
-0.841428,-0.055525,1.086164,172,173,184
-0.836080,-0.055525,1.086164,170,175,169
-0.831613,-0.055584,1.087316,173,176,183
-0.827137,-0.055643,1.088469,174,172,174
-0.822214,-0.055672,1.089047,176,178,173
-0.817286,-0.055702,1.089625,175,177,184
-0.812353,-0.055731,1.090204,177,176,177
-0.807415,-0.055761,1.090784,166,180,184
-0.802471,-0.055791,1.091364,174,173,178
-0.797947,-0.055850,1.092526,173,172,174
-0.792568,-0.055850,1.092526,161,174,181
-0.787609,-0.055880,1.093108,175,176,178
-0.782644,-0.055910,1.093691,173,177,173
-0.777674,-0.055939,1.094274,178,176,181
-0.772698,-0.055969,1.094858,169,174,174
-0.767308,-0.055969,1.094858,175,176,176
-0.762325,-0.055999,1.095443,180,177,187
-0.757336,-0.056029,1.096028,180,176,181
-0.752342,-0.056059,1.096614,179,180,184
-0.746943,-0.056059,1.096614,180,179,183
-0.741940,-0.056089,1.097200,186,181,178
-0.736933,-0.056119,1.097787,181,182,186
-0.731920,-0.056149,1.098375,182,182,174
-0.726512,-0.056149,1.098375,177,179,185
-0.721877,-0.056209,1.099552,182,184,187
-0.716464,-0.056209,1.099552,181,184,185
-0.711050,-0.056209,1.099552,182,181,189
-0.706015,-0.056239,1.100142,181,182,196
-0.701351,-0.056300,1.101323,182,183,193
-0.695929,-0.056300,1.101323,175,188,181
-0.690507,-0.056300,1.101323,184,178,193
-0.685453,-0.056330,1.101914,186,184,185
-0.680028,-0.056330,1.101914,188,186,180
-0.674603,-0.056330,1.101914,181,183,192
-0.668818,-0.056300,1.101323,184,185,179
-0.663040,-0.056270,1.100732,191,181,182
-0.657621,-0.056270,1.100732,181,186,199
-0.651852,-0.056239,1.100142,188,183,190
-0.646436,-0.056239,1.100142,186,183,176
-0.640676,-0.056209,1.099552,181,184,178
-0.635263,-0.056209,1.099552,184,186,180
-0.629175,-0.056149,1.098375,187,187,191
-0.624102,-0.056179,1.098963,190,186,186
-0.619354,-0.056239,1.100142,178,182,191
-0.614597,-0.056300,1.101323,185,182,184
-0.609502,-0.056330,1.101914,180,185,186
-0.604077,-0.056330,1.101914,182,186,182
-0.598652,-0.056330,1.101914,185,181,189
-0.593227,-0.056330,1.101914,184,177,175
-0.587802,-0.056330,1.101914,187,179,191
-0.582377,-0.056330,1.101914,178,186,185
-0.576952,-0.056330,1.101914,186,187,188
-0.571527,-0.056330,1.101914,188,186,185
-0.567016,-0.056421,1.103693,184,186,185
-0.561884,-0.056451,1.104287,181,186,191
-0.556747,-0.056482,1.104881,190,181,181
-0.551902,-0.056543,1.106073,183,180,195
-0.546751,-0.056573,1.106669,182,183,181
-0.541595,-0.056604,1.107266,186,181,184
-0.536433,-0.056634,1.107864,185,184,182
-0.531553,-0.056695,1.109062,184,180,193
-0.526662,-0.056757,1.110262,180,186,186
-0.521760,-0.056818,1.111465,183,177,179
-0.516288,-0.056818,1.111465,185,182,176
-0.510540,-0.056787,1.110863,187,182,178
-0.505892,-0.056880,1.112671,183,178,193
-0.500958,-0.056942,1.113879,181,178,189
-0.496012,-0.057003,1.115089,178,183,177
-0.490789,-0.057034,1.115696,181,173,182
-0.485560,-0.057066,1.116303,187,173,184
-0.480587,-0.057128,1.117519,187,179,183
-0.475085,-0.057128,1.117519,174,179,169
-0.469839,-0.057159,1.118128,186,178,180
-0.464335,-0.057159,1.118128,185,179,169
-0.458580,-0.057128,1.117519,193,177,176
-0.453078,-0.057128,1.117519,179,182,177
-0.447576,-0.057128,1.117519,170,184,172
-0.442556,-0.057190,1.118737,184,175,176
-0.436810,-0.057159,1.118128,178,179,168
-0.431776,-0.057221,1.119348,179,174,172
-0.426498,-0.057252,1.119959,176,176,173
-0.421214,-0.057284,1.120570,178,176,177
-0.416379,-0.057378,1.122409,179,177,173
-0.411078,-0.057409,1.123024,179,167,169
-0.405994,-0.057472,1.124255,180,175,177
-0.400678,-0.057503,1.124871,168,169,170
-0.395357,-0.057535,1.125488,112,127,119
-0.390244,-0.057598,1.126724,50,51,55
-0.384697,-0.057598,1.126724,63,57,55
-0.379149,-0.057598,1.126724,28,34,37
-0.373808,-0.057630,1.127343,19,18,18
-0.368460,-0.057662,1.127963,13,16,14
-0.362907,-0.057662,1.127963,13,13,13
-0.357157,-0.057630,1.127343,21,18,17
-0.351800,-0.057662,1.127963,22,22,20
-0.346437,-0.057693,1.128583,20,22,23
-0.340881,-0.057693,1.128583,19,16,14
-0.335694,-0.057757,1.129826,21,17,20
-0.330131,-0.057757,1.129826,20,17,22
-0.324569,-0.057757,1.129826,21,20,18
-0.319358,-0.057820,1.131072,18,18,14
-0.313790,-0.057820,1.131072,20,17,21
-0.308561,-0.057884,1.132320,17,20,22
-0.302819,-0.057852,1.131696,22,17,19
-0.297740,-0.057948,1.133572,20,18,21
-0.292160,-0.057948,1.133572,21,18,19
-0.286737,-0.057980,1.134198,19,17,22
-0.281309,-0.058012,1.134825,22,20,20
-0.275722,-0.058012,1.134825,18,18,19
-0.270434,-0.058077,1.136082,16,18,21
-0.264987,-0.058109,1.136712,20,17,24
-0.259391,-0.058109,1.136712,16,19,19
-0.253935,-0.058141,1.137342,18,17,22
-0.248336,-0.058141,1.137342,15,16,17
-0.242736,-0.058141,1.137342,18,17,16
-0.237137,-0.058141,1.137342,19,18,10
-0.231666,-0.058173,1.137973,17,18,13
-0.225938,-0.058141,1.137342,22,20,21
-0.220216,-0.058109,1.136712,19,19,26
-0.214739,-0.058141,1.137342,18,17,19
-0.209139,-0.058141,1.137342,16,18,22
-0.203653,-0.058173,1.137973,20,17,22
-0.198270,-0.058238,1.139236,18,17,18
-0.192661,-0.058238,1.139236,19,18,19
-0.187157,-0.058270,1.139869,15,15,21
-0.181646,-0.058303,1.140503,22,20,19
-0.176129,-0.058335,1.141137,20,18,17
-0.170510,-0.058335,1.141137,19,18,22
-0.164984,-0.058367,1.141772,20,16,17
-0.159363,-0.058367,1.141772,24,19,22
-0.153827,-0.058400,1.142408,26,19,25
-0.148616,-0.058563,1.145597,10,13,13
-0.143457,-0.058760,1.149448,10,8,10
-0.137952,-0.058826,1.150737,16,13,12
-0.132361,-0.058859,1.151383,16,16,17
-0.126764,-0.058892,1.152030,17,16,20
-0.121092,-0.058892,1.152030,16,16,15
-0.115485,-0.058925,1.152677,19,15,17
-0.109934,-0.058991,1.153973,19,16,16
-0.104311,-0.059024,1.154623,17,14,14
-0.098627,-0.059024,1.154623,17,15,21
-0.092994,-0.059058,1.155273,18,17,15
-0.087258,-0.059024,1.154623,20,17,20
-0.081573,-0.059024,1.154623,16,17,22
-0.075888,-0.059024,1.154623,20,17,15
-0.070204,-0.059024,1.154623,17,16,21
-0.064556,-0.059058,1.155273,22,16,21
-0.058901,-0.059091,1.155924,20,20,18
-0.053270,-0.059158,1.157228,17,15,20
-0.047573,-0.059158,1.157228,17,18,17
-0.041923,-0.059224,1.158534,20,15,17
-0.036260,-0.059291,1.159844,22,19,21
-0.030446,-0.059091,1.155924,44,36,43
-0.012441,-0.054972,1.075348,111,101,101
-0.007129,-0.054828,1.072538,119,105,108
-0.001842,-0.054657,1.069184,125,110,115
0.003418,-0.054600,1.068071,124,114,126
0.008640,-0.054373,1.063642,132,122,117
0.013805,-0.054093,1.058156,138,129,126
0.018917,-0.053815,1.052727,141,134,142
0.024002,-0.053595,1.048423,131,135,136
0.029089,-0.053459,1.045752,139,137,140
0.034133,-0.053296,1.042563,134,136,141
0.039147,-0.053134,1.039394,133,134,134
0.044085,-0.052919,1.035199,139,132,144
0.049058,-0.052786,1.032594,138,137,140
0.053979,-0.052627,1.029485,139,137,141
0.058811,-0.052417,1.025370,139,132,148
0.063637,-0.052234,1.021795,126,125,129
0.068497,-0.052105,1.019257,118,118,125
0.073369,-0.052001,1.017236,113,111,122
0.078184,-0.051873,1.014720,93,94,98
0.083056,-0.051796,1.013217,79,77,84
0.087914,-0.051719,1.011718,70,71,80
0.092758,-0.051643,1.010224,62,65,71
0.097587,-0.051567,1.008734,63,66,72
0.102453,-0.051516,1.007743,67,66,72
0.107414,-0.051516,1.007743,74,71,75
0.112265,-0.051465,1.006754,82,83,94
0.117164,-0.051440,1.006260,91,87,100
0.122059,-0.051415,1.005767,98,98,94
0.127073,-0.051440,1.006260,105,106,107
0.132027,-0.051440,1.006260,108,105,110
0.136981,-0.051440,1.006260,107,111,116
0.141935,-0.051440,1.006260,114,108,107
0.146961,-0.051465,1.006754,104,111,103
0.151992,-0.051491,1.007248,104,102,98
0.157105,-0.051541,1.008238,98,98,100
0.162069,-0.051541,1.008238,94,94,108
0.167197,-0.051592,1.009230,92,90,93
0.172506,-0.051694,1.011220,86,85,79
0.177659,-0.051745,1.012217,79,79,82
0.182913,-0.051821,1.013718,78,74,80
0.187997,-0.051847,1.014219,68,70,72
0.193277,-0.051924,1.015725,69,60,61
0.198573,-0.052001,1.017236,65,59,61
0.203884,-0.052079,1.018751,53,53,61
0.209524,-0.052234,1.021795,52,56,50
0.214983,-0.052339,1.023835,56,49,49
0.220574,-0.052469,1.026395,52,48,44
0.226193,-0.052601,1.028969,43,48,46
0.232190,-0.052813,1.033114,42,47,43
0.238116,-0.053000,1.036768,47,44,41
0.244207,-0.053215,1.040976,40,40,43
0.251116,-0.053595,1.048423,39,38,35
0.257726,-0.053898,1.054350,36,33,31
0.264822,-0.054289,1.061990,33,31,35
0.271880,-0.054657,1.069184,36,31,31
0.279327,-0.055087,1.077607,31,31,24
0.287349,-0.055613,1.087892,32,32,27
0.296319,-0.056300,1.101323,29,26,28
0.305347,-0.056973,1.114484,24,24,21
0.314075,-0.057567,1.126106,20,17,14
0.322094,-0.058012,1.134825,16,13,16
0.330423,-0.058498,1.144319,9,7,10
0.337185,-0.058694,1.148162,0,7,5
0.343222,-0.058760,1.149448,8,7,7
0.349272,-0.058826,1.150737,8,8,6
0.355137,-0.058859,1.151383,7,6,9
0.360805,-0.058859,1.151383,8,8,3
0.366679,-0.058892,1.152030,6,7,7
0.372351,-0.058892,1.152030,8,8,6
0.378448,-0.058958,1.153325,9,6,9
0.384126,-0.058958,1.153325,9,8,12
0.390024,-0.058991,1.153973,11,6,2
0.395928,-0.059024,1.154623,10,8,6
0.401838,-0.059058,1.155273,11,6,12
0.407526,-0.059058,1.155273,9,9,11
0.413446,-0.059091,1.155924,13,10,9
0.418901,-0.059058,1.155273,12,11,8
0.424350,-0.059024,1.154623,9,8,12
0.430035,-0.059024,1.154623,12,8,11
0.436210,-0.059091,1.155924,10,12,10
0.442150,-0.059124,1.156575,10,9,12
0.448350,-0.059191,1.157881,9,10,11
0.454050,-0.059191,1.157881,11,11,8
0.459751,-0.059191,1.157881,11,9,20
0.465714,-0.059224,1.158534,12,11,10
0.471418,-0.059224,1.158534,12,12,13
0.476853,-0.059191,1.157881,10,14,17
0.482281,-0.059158,1.157228,13,12,11
0.487703,-0.059124,1.156575,11,12,7
0.493120,-0.059091,1.155924,13,10,14
0.498530,-0.059058,1.155273,12,11,9
0.503650,-0.058991,1.153973,13,13,9
0.509045,-0.058958,1.153325,12,13,17
0.514434,-0.058925,1.152677,14,11,9
0.520109,-0.058925,1.152677,18,13,11
0.525784,-0.058925,1.152677,14,14,14
0.531161,-0.058892,1.152030,12,14,13
0.536531,-0.058859,1.151383,17,13,19
0.542504,-0.058892,1.152030,17,14,13
0.548176,-0.058892,1.152030,12,13,13
0.553848,-0.058892,1.152030,15,14,16
0.559519,-0.058892,1.152030,15,14,14
0.564874,-0.058859,1.151383,17,15,7
0.570543,-0.058859,1.151383,15,16,23
0.575888,-0.058826,1.150737,17,15,14
0.581553,-0.058826,1.150737,12,14,16
0.587219,-0.058826,1.150737,14,15,18
0.592884,-0.058826,1.150737,18,16,16
0.598886,-0.058859,1.151383,19,18,17
0.604215,-0.058826,1.150737,16,15,14
0.609197,-0.058760,1.149448,16,18,26
0.614512,-0.058727,1.148804,46,44,46
0.619474,-0.058661,1.147519,72,71,68
0.624774,-0.058628,1.146878,104,98,94
0.630773,-0.058661,1.147519,125,114,113
0.636067,-0.058628,1.146878,127,122,124
0.641713,-0.058628,1.146878,117,118,127
0.647360,-0.058628,1.146878,120,121,124
0.653371,-0.058661,1.147519,121,117,123
0.659390,-0.058694,1.148162,122,125,126
0.665042,-0.058694,1.148162,122,122,127
0.671071,-0.058727,1.148804,124,123,124
0.677106,-0.058760,1.149448,119,120,119
0.682765,-0.058760,1.149448,117,119,117
0.688810,-0.058793,1.150092,112,116,110
0.694861,-0.058826,1.150737,114,110,124
0.701313,-0.058892,1.152030,110,113,116
0.706192,-0.058826,1.150737,107,107,105
0.711060,-0.058760,1.149448,38,37,43
0.716719,-0.058760,1.149448,14,13,23
0.723188,-0.058826,1.150737,14,12,17
0.728445,-0.058793,1.150092,16,19,14
0.734519,-0.058826,1.150737,15,15,12
0.740185,-0.058826,1.150737,11,12,15
0.745850,-0.058826,1.150737,15,13,13
0.751094,-0.058793,1.150092,13,14,13
0.756332,-0.058760,1.149448,16,13,15
0.764132,-0.058925,1.152677,39,40,52
-1.020002,-0.050018,1.082725,86,82,80
-1.015208,-0.050045,1.083297,84,83,81
-1.009874,-0.050045,1.083297,81,85,84
-1.004541,-0.050045,1.083297,90,90,82
-0.998680,-0.050018,1.082725,89,92,88
-0.993874,-0.050045,1.083297,93,93,96
-0.988541,-0.050045,1.083297,98,92,99
-0.983727,-0.050071,1.083869,98,98,90
-0.978391,-0.050071,1.083869,106,107,96
-0.972541,-0.050045,1.083297,108,107,110
-0.967718,-0.050071,1.083869,112,113,111
-0.962382,-0.050071,1.083869,114,116,123
-0.957046,-0.050071,1.083869,118,123,121
-0.951710,-0.050071,1.083869,127,125,128
-0.946874,-0.050098,1.084442,124,125,126
-0.940540,-0.050045,1.083297,130,125,131
-0.935207,-0.050045,1.083297,136,133,131
-0.929874,-0.050045,1.083297,133,138,133
-0.925029,-0.050071,1.083869,135,139,135
-0.920665,-0.050124,1.085016,146,149,142
-0.915323,-0.050124,1.085016,150,147,148
-0.909982,-0.050124,1.085016,139,150,155
-0.903684,-0.050071,1.083869,154,146,148
-0.898348,-0.050071,1.083869,156,153,151
-0.892540,-0.050045,1.083297,146,153,154
-0.888145,-0.050098,1.084442,150,154,161
-0.883272,-0.050124,1.085016,149,153,154
-0.877931,-0.050124,1.085016,156,156,159
-0.872127,-0.050098,1.084442,160,158,155
-0.866789,-0.050098,1.084442,164,162,165
-0.861905,-0.050124,1.085016,161,167,167
-0.857016,-0.050151,1.085590,156,164,171
-0.851672,-0.050151,1.085590,163,164,163
-0.847224,-0.050204,1.086740,164,162,179
-0.841873,-0.050204,1.086740,162,167,173
-0.836523,-0.050204,1.086740,167,169,176
-0.831613,-0.050231,1.087316,165,172,176
-0.827576,-0.050310,1.089047,163,168,186
-0.822214,-0.050310,1.089047,172,172,173
-0.817286,-0.050337,1.089625,168,173,171
-0.811922,-0.050337,1.089625,176,174,169
-0.807415,-0.050391,1.090784,174,169,177
-0.802898,-0.050444,1.091945,171,169,178
-0.797947,-0.050471,1.092526,176,174,168
-0.792568,-0.050471,1.092526,164,172,171
-0.787609,-0.050498,1.093108,172,172,174
-0.783061,-0.050552,1.094274,178,170,179
-0.778089,-0.050579,1.094858,179,176,180
-0.772698,-0.050579,1.094858,169,176,182
-0.767308,-0.050579,1.094858,169,177,175
-0.762325,-0.050606,1.095443,177,174,174
-0.757741,-0.050660,1.096614,172,178,178
-0.752342,-0.050660,1.096614,187,174,178
-0.746943,-0.050660,1.096614,184,180,188
-0.741940,-0.050687,1.097200,179,181,189
-0.736539,-0.050687,1.097200,184,178,182
-0.731920,-0.050741,1.098375,185,183,179
-0.726512,-0.050741,1.098375,179,182,182
-0.721491,-0.050769,1.098963,183,178,167
-0.716464,-0.050796,1.099552,172,182,189
-0.711432,-0.050823,1.100142,181,177,188
-0.706015,-0.050823,1.100142,172,179,189
-0.700975,-0.050850,1.100732,188,176,193
-0.695929,-0.050878,1.101323,186,180,182
-0.690507,-0.050878,1.101323,181,186,188
-0.685453,-0.050905,1.101914,178,181,185
-0.680393,-0.050932,1.102507,190,185,183
-0.674603,-0.050905,1.101914,190,176,183
-0.668818,-0.050878,1.101323,181,187,179
-0.663040,-0.050850,1.100732,184,186,186
-0.657621,-0.050850,1.100732,186,186,186
-0.651852,-0.050823,1.100142,179,181,185
-0.646436,-0.050823,1.100142,180,178,195
-0.640676,-0.050796,1.099552,185,182,194
-0.635263,-0.050796,1.099552,179,186,181
-0.629175,-0.050741,1.098375,181,186,183
-0.624436,-0.050796,1.099552,189,183,183
-0.619687,-0.050850,1.100732,181,186,180
-0.614597,-0.050878,1.101323,186,185,184
-0.609830,-0.050932,1.102507,187,179,190
-0.604077,-0.050905,1.101914,185,178,188
-0.598652,-0.050905,1.101914,190,187,176
-0.593227,-0.050905,1.101914,186,183,185
-0.588118,-0.050932,1.102507,182,182,190
-0.582690,-0.050932,1.102507,175,184,184
-0.577262,-0.050932,1.102507,193,186,187
-0.572142,-0.050960,1.103099,194,187,181
-0.567016,-0.050987,1.103693,187,182,178
-0.561884,-0.051015,1.104287,187,177,193
-0.557047,-0.051069,1.105477,186,182,185
-0.552199,-0.051125,1.106669,188,180,177
-0.546751,-0.051125,1.106669,183,183,184
-0.541595,-0.051152,1.107266,182,182,180
-0.536433,-0.051180,1.107864,187,180,181
-0.531553,-0.051235,1.109062,187,185,179
-0.526662,-0.051291,1.110262,184,181,185
-0.521760,-0.051346,1.111465,187,180,178
-0.516568,-0.051374,1.112068,183,175,189
-0.510816,-0.051346,1.111465,184,182,184
-0.505892,-0.051402,1.112671,180,181,179
-0.500686,-0.051430,1.113274,180,183,191
-0.495474,-0.051458,1.113879,183,175,181
-0.490522,-0.051514,1.115089,184,178,183
-0.485560,-0.051570,1.116303,178,179,181
-0.480587,-0.051626,1.117519,180,175,185
-0.475344,-0.051654,1.118128,179,181,180
-0.469839,-0.051654,1.118128,181,175,168
-0.464335,-0.051654,1.118128,176,182,169
-0.458580,-0.051626,1.117519,180,181,177
-0.453078,-0.051626,1.117519,171,178,184
-0.447820,-0.051654,1.118128,175,177,169
-0.442556,-0.051682,1.118737,186,170,173
-0.437048,-0.051682,1.118737,182,180,175
-0.431776,-0.051710,1.119348,183,173,176
-0.426265,-0.051710,1.119348,179,177,166
-0.420984,-0.051739,1.119959,176,171,179
-0.416152,-0.051823,1.121796,179,168,177
-0.411078,-0.051880,1.123024,179,172,166
-0.405771,-0.051909,1.123639,178,174,166
-0.400459,-0.051937,1.124255,183,166,171
-0.395140,-0.051965,1.124871,114,123,126
-0.390244,-0.052051,1.126724,46,47,56
-0.384697,-0.052051,1.126724,57,54,56
-0.379149,-0.052051,1.126724,27,28,35
-0.374013,-0.052108,1.127963,18,16,19
-0.368460,-0.052108,1.127963,11,11,13
-0.362907,-0.052108,1.127963,14,12,13
-0.357157,-0.052080,1.127343,17,22,17
-0.351800,-0.052108,1.127963,18,20,22
-0.346437,-0.052137,1.128583,22,20,21
-0.340881,-0.052137,1.128583,17,14,14
-0.335509,-0.052166,1.129205,18,19,17
-0.330131,-0.052194,1.129826,19,18,21
-0.324569,-0.052194,1.129826,21,19,24
-0.319182,-0.052223,1.130449,17,17,19
-0.313790,-0.052252,1.131072,18,19,19
-0.308391,-0.052281,1.131696,22,15,20
-0.302987,-0.052310,1.132320,17,16,18
-0.297740,-0.052367,1.133572,20,18,23
-0.292160,-0.052367,1.133572,22,18,21
-0.286737,-0.052396,1.134198,18,18,22
-0.281153,-0.052396,1.134198,19,19,16
-0.275874,-0.052454,1.135454,21,19,18
-0.270434,-0.052483,1.136082,20,18,17
-0.264987,-0.052512,1.136712,19,17,16
-0.259391,-0.052512,1.136712,20,18,19
-0.254076,-0.052571,1.137973,17,19,22
-0.248473,-0.052571,1.137973,19,16,23
-0.242736,-0.052542,1.137342,19,17,17
-0.237137,-0.052542,1.137342,22,17,18
-0.231666,-0.052571,1.137973,21,18,22
-0.225938,-0.052542,1.137342,21,19,27
-0.220338,-0.052542,1.137342,21,18,19
-0.214620,-0.052512,1.136712,20,19,18
-0.209024,-0.052512,1.136712,16,17,19
-0.203540,-0.052542,1.137342,20,17,14
-0.198160,-0.052600,1.138604,19,17,16
-0.192661,-0.052629,1.139236,19,16,19
-0.187157,-0.052658,1.139869,17,17,21
-0.181646,-0.052688,1.140503,21,19,17
-0.176031,-0.052688,1.140503,21,20,15
-0.170416,-0.052688,1.140503,18,18,20
-0.164892,-0.052717,1.141137,24,19,24
-0.159363,-0.052746,1.141772,27,21,19
-0.153827,-0.052776,1.142408,24,25,25
-0.148616,-0.052923,1.145597,9,11,12
-0.143457,-0.053101,1.149448,12,11,15
-0.137952,-0.053160,1.150737,14,12,17
-0.132361,-0.053190,1.151383,15,13,17
-0.126764,-0.053220,1.152030,17,14,12
-0.121160,-0.053250,1.152677,15,15,18
-0.115485,-0.053250,1.152677,17,15,11
-0.109934,-0.053310,1.153973,15,13,12
-0.104252,-0.053310,1.153973,16,16,11
-0.098627,-0.053340,1.154623,17,15,19
-0.092942,-0.053340,1.154623,17,18,17
-0.087208,-0.053310,1.153973,19,14,19
-0.081527,-0.053310,1.153973,16,18,17
-0.075846,-0.053310,1.153973,19,17,16
-0.070164,-0.053310,1.153973,21,19,18
-0.064519,-0.053340,1.154623,18,16,17
-0.058901,-0.053400,1.155924,19,17,22
-0.053240,-0.053430,1.156575,19,18,21
-0.047573,-0.053460,1.157228,23,17,20
-0.041899,-0.053490,1.157881,21,17,18
-0.036260,-0.053581,1.159844,19,17,19
-0.030567,-0.053611,1.160500,16,19,20
-0.024783,-0.053460,1.157228,25,21,20
-0.007211,-0.050124,1.085016,180,185,199
-0.001852,-0.049652,1.074785,207,200,211
0.003429,-0.049496,1.071418,202,197,202
0.008663,-0.049265,1.066406,216,197,230
0.013827,-0.048959,1.059796,212,219,224
0.018947,-0.048708,1.054350,209,202,216
0.024002,-0.048434,1.048423,202,202,223
0.029074,-0.048286,1.045219,196,198,199
0.034116,-0.048139,1.042034,188,185,193
0.039127,-0.047992,1.038868,179,174,188
0.044085,-0.047823,1.035199,174,176,200
0.049058,-0.047703,1.032594,187,175,191
0.053979,-0.047559,1.029485,166,167,173
0.058811,-0.047369,1.025370,183,171,186
0.063637,-0.047204,1.021795,171,166,181
0.068531,-0.047110,1.019764,165,158,177
0.073406,-0.047016,1.017740,142,145,153
0.078222,-0.046900,1.015222,118,126,132
0.083097,-0.046831,1.013718,109,111,118
0.087958,-0.046761,1.012217,87,87,99
0.092804,-0.046692,1.010721,80,76,79
0.097683,-0.046646,1.009727,83,85,85
0.102554,-0.046600,1.008734,85,86,92
0.107520,-0.046600,1.008734,92,93,99
0.112376,-0.046555,1.007743,96,96,109
0.117280,-0.046532,1.007248,119,119,129
0.122178,-0.046509,1.006754,130,120,135
0.127135,-0.046509,1.006754,132,128,138
0.132156,-0.046532,1.007248,132,131,140
0.137048,-0.046509,1.006754,135,130,132
0.142074,-0.046532,1.007248,139,128,140
0.147033,-0.046532,1.007248,139,131,144
0.152067,-0.046555,1.007743,139,139,137
0.157105,-0.046577,1.008238,142,138,141
0.162229,-0.046623,1.009230,129,130,135
0.167362,-0.046669,1.010224,115,115,112
0.172591,-0.046738,1.011718,110,104,103
0.177835,-0.046807,1.013217,96,101,106
0.183004,-0.046854,1.014219,94,91,103
0.188090,-0.046877,1.014720,89,92,87
0.193373,-0.046946,1.016228,86,82,91
0.198573,-0.046993,1.017236,77,79,82
0.203985,-0.047086,1.019257,73,70,70
0.209524,-0.047204,1.021795,73,61,58
0.215090,-0.047322,1.024346,55,54,57
0.220794,-0.047464,1.027423,58,55,59
0.226533,-0.047607,1.030520,54,53,50
0.232541,-0.047799,1.034677,49,49,52
0.238477,-0.047968,1.038342,55,49,42
0.244704,-0.048188,1.043093,46,45,48
0.251501,-0.048508,1.050033,47,45,40
0.258257,-0.048808,1.056521,45,38,39
0.265234,-0.049137,1.063642,41,43,44
0.272306,-0.049470,1.070858,36,40,41
0.279768,-0.049861,1.079308,39,41,39
0.288266,-0.050418,1.091364,40,43,35
0.297276,-0.051042,1.104881,40,37,40
0.306512,-0.051682,1.118737,24,22,24
0.318091,-0.052688,1.140503,7,5,9
0.325333,-0.052953,1.146237,7,5,7
0.331532,-0.053041,1.148162,9,5,4
0.337941,-0.053160,1.150737,6,5,7
0.343607,-0.053160,1.150737,9,6,7
0.349272,-0.053160,1.150737,6,11,8
0.355336,-0.053220,1.152030,9,5,7
0.360805,-0.053190,1.151383,12,9,12
0.366679,-0.053220,1.152030,9,7,7
0.372351,-0.053220,1.152030,11,7,5
0.378448,-0.053280,1.153325,8,7,10
0.384126,-0.053280,1.153325,6,6,7
0.390024,-0.053310,1.153973,9,7,6
0.395928,-0.053340,1.154623,7,9,10
0.401612,-0.053340,1.154623,8,9,11
0.407297,-0.053340,1.154623,9,9,10
0.413214,-0.053370,1.155273,12,9,10
0.418901,-0.053370,1.155273,12,9,11
0.424350,-0.053340,1.154623,9,11,8
0.430035,-0.053340,1.154623,12,9,11
0.436210,-0.053400,1.155924,12,13,7
0.442150,-0.053430,1.156575,13,11,8
0.448097,-0.053460,1.157228,11,9,10
0.454050,-0.053490,1.157881,11,12,9
0.459751,-0.053490,1.157881,13,11,13
0.465452,-0.053490,1.157881,10,11,9
0.471152,-0.053490,1.157881,9,12,9
0.476853,-0.053490,1.157881,12,12,9
0.482281,-0.053460,1.157228,12,10,13
0.487978,-0.053460,1.157228,12,13,16
0.493120,-0.053400,1.155924,17,12,9
0.498530,-0.053370,1.155273,14,11,15
0.503650,-0.053310,1.153973,14,13,9
0.508759,-0.053250,1.152677,15,14,12
0.514145,-0.053220,1.152030,16,12,15
0.519817,-0.053220,1.152030,15,13,14
0.525784,-0.053250,1.152677,12,11,15
0.531161,-0.053220,1.152030,17,13,14
0.536832,-0.053220,1.152030,18,14,14
0.542504,-0.053220,1.152030,16,12,19
0.548176,-0.053220,1.152030,15,13,15
0.553537,-0.053190,1.151383,15,13,15
0.559205,-0.053190,1.151383,14,15,17
0.564874,-0.053190,1.151383,18,15,16
0.570223,-0.053160,1.150737,15,14,21
0.576211,-0.053190,1.151383,16,17,13
0.581880,-0.053190,1.151383,18,13,17
0.587219,-0.053160,1.150737,19,15,22
0.592884,-0.053160,1.150737,18,18,16
0.598550,-0.053160,1.150737,18,17,20
0.603876,-0.053131,1.150092,18,21,13
0.609539,-0.053131,1.150092,20,19,25
0.614512,-0.053071,1.148804,47,42,35
0.619474,-0.053012,1.147519,69,70,63
0.624774,-0.052982,1.146878,89,99,94
0.630421,-0.052982,1.146878,117,112,104
0.636067,-0.052982,1.146878,117,121,117
0.641713,-0.052982,1.146878,122,125,119
0.647722,-0.053012,1.147519,127,122,123
0.653371,-0.053012,1.147519,119,119,128
0.659390,-0.053041,1.148162,121,118,118
0.665415,-0.053071,1.148804,124,120,125
0.671071,-0.053071,1.148804,119,117,124
0.677106,-0.053101,1.149448,119,120,112
0.682765,-0.053101,1.149448,119,116,120
0.688810,-0.053131,1.150092,117,115,122
0.695251,-0.053190,1.151383,122,118,113
0.701707,-0.053250,1.152677,121,110,118
0.706192,-0.053160,1.150737,109,101,100
0.711459,-0.053131,1.150092,46,39,44
0.717121,-0.053131,1.150092,14,13,20
0.723188,-0.053160,1.150737,11,15,17
0.728854,-0.053160,1.150737,15,15,11
0.734107,-0.053131,1.150092,11,14,11
0.740185,-0.053160,1.150737,12,12,12
0.745850,-0.053160,1.150737,12,17,16
0.751094,-0.053131,1.150092,13,11,14
0.756332,-0.053101,1.149448,16,14,13
0.764561,-0.053280,1.153325,40,42,44
-1.020541,-0.044711,1.083297,78,82,78
-1.015208,-0.044711,1.083297,82,84,79
-1.009874,-0.044711,1.083297,80,85,85
-1.004541,-0.044711,1.083297,91,85,86
-0.999207,-0.044711,1.083297,90,89,89
-0.993874,-0.044711,1.083297,97,96,88
-0.988541,-0.044711,1.083297,98,93,92
-0.983727,-0.044735,1.083869,94,97,98
-0.978391,-0.044735,1.083869,96,100,101
-0.972541,-0.044711,1.083297,106,106,108
-0.967718,-0.044735,1.083869,109,112,111
-0.961874,-0.044711,1.083297,115,116,119
-0.957046,-0.044735,1.083869,116,113,115
-0.951207,-0.044711,1.083297,124,119,127
-0.945874,-0.044711,1.083297,127,123,120
-0.940540,-0.044711,1.083297,128,120,140
-0.935207,-0.044711,1.083297,131,122,126
-0.930365,-0.044735,1.083869,137,132,135
-0.925029,-0.044735,1.083869,138,140,142
-0.920179,-0.044759,1.084442,149,137,148
-0.915323,-0.044782,1.085016,145,146,143
-0.909982,-0.044782,1.085016,148,148,149
-0.904640,-0.044782,1.085016,150,146,148
-0.898348,-0.044735,1.083869,156,146,158
-0.892540,-0.044711,1.083297,154,151,153
-0.888145,-0.044759,1.084442,145,152,158
-0.883272,-0.044782,1.085016,161,153,153
-0.877931,-0.044782,1.085016,161,156,154
-0.872589,-0.044782,1.085016,154,152,155
-0.866789,-0.044759,1.084442,146,157,159
-0.861905,-0.044782,1.085016,162,155,158
-0.856563,-0.044782,1.085016,160,160,159
-0.852123,-0.044830,1.086164,168,160,165
-0.846775,-0.044830,1.086164,168,165,176
-0.841873,-0.044854,1.086740,164,170,168
-0.836523,-0.044854,1.086740,163,164,168
-0.831613,-0.044877,1.087316,162,163,161
-0.826698,-0.044901,1.087892,165,169,174
-0.821342,-0.044901,1.087892,168,167,175
-0.816852,-0.044949,1.089047,171,166,168
-0.811922,-0.044973,1.089625,160,165,171
-0.806986,-0.044997,1.090204,168,168,163
-0.802898,-0.045068,1.091945,159,174,181
-0.797947,-0.045092,1.092526,169,164,177
-0.792568,-0.045092,1.092526,168,169,171
-0.787609,-0.045116,1.093108,169,165,172
-0.782644,-0.045140,1.093691,173,166,172
-0.777259,-0.045140,1.093691,171,169,163
-0.772286,-0.045165,1.094274,173,167,175
-0.767308,-0.045189,1.094858,170,173,179
-0.762325,-0.045213,1.095443,182,172,176
-0.757741,-0.045261,1.096614,178,175,181
-0.752744,-0.045285,1.097200,179,171,174
-0.747342,-0.045285,1.097200,174,175,173
-0.742337,-0.045310,1.097787,177,179,183
-0.736933,-0.045310,1.097787,173,175,181
-0.731920,-0.045334,1.098375,177,181,173
-0.726901,-0.045358,1.098963,181,177,175
-0.721491,-0.045358,1.098963,180,184,176
-0.716464,-0.045382,1.099552,171,179,176
-0.711432,-0.045407,1.100142,184,180,172
-0.706015,-0.045407,1.100142,180,180,184
-0.701351,-0.045455,1.101323,177,176,186
-0.696303,-0.045480,1.101914,178,182,176
-0.690878,-0.045480,1.101914,176,178,188
-0.685821,-0.045504,1.102507,181,178,183
-0.680759,-0.045529,1.103099,185,180,186
-0.674965,-0.045504,1.102507,175,182,185
-0.669537,-0.045504,1.102507,186,178,179
-0.663753,-0.045480,1.101914,186,185,181
-0.657974,-0.045455,1.101323,184,183,187
-0.652552,-0.045455,1.101323,186,183,191
-0.647130,-0.045455,1.101323,177,181,174
-0.641364,-0.045431,1.100732,183,174,188
-0.635944,-0.045431,1.100732,184,184,176
-0.630187,-0.045407,1.100142,177,185,186
-0.625106,-0.045431,1.100732,182,191,183
-0.620352,-0.045480,1.101914,179,181,181
-0.615258,-0.045504,1.102507,187,179,189
-0.609830,-0.045504,1.102507,178,180,180
-0.604727,-0.045529,1.103099,179,179,182
-0.598974,-0.045504,1.102507,181,181,177
-0.593546,-0.045504,1.102507,187,179,178
-0.588434,-0.045529,1.103099,187,185,185
-0.583003,-0.045529,1.103099,183,181,181
-0.577573,-0.045529,1.103099,180,185,183
-0.572142,-0.045529,1.103099,180,179,185
-0.567016,-0.045553,1.103693,181,184,186
-0.561884,-0.045578,1.104287,187,175,187
-0.557047,-0.045627,1.105477,188,181,187
-0.551902,-0.045652,1.106073,172,180,188
-0.546751,-0.045676,1.106669,181,185,180
-0.541595,-0.045701,1.107266,190,184,184
-0.536433,-0.045725,1.107864,177,180,184
-0.531553,-0.045775,1.109062,192,179,180
-0.526662,-0.045824,1.110262,184,186,187
-0.521760,-0.045874,1.111465,185,181,172
-0.516568,-0.045899,1.112068,183,178,177
-0.511370,-0.045924,1.112671,180,181,183
-0.506167,-0.045949,1.113274,178,177,182
-0.500958,-0.045974,1.113879,185,182,182
-0.496012,-0.046024,1.115089,187,175,192
-0.491056,-0.046074,1.116303,182,176,179
-0.485560,-0.046074,1.116303,180,174,178
-0.480587,-0.046124,1.117519,184,175,184
-0.475344,-0.046149,1.118128,178,179,195
-0.470096,-0.046174,1.118737,179,177,183
-0.464588,-0.046174,1.118737,179,178,175
-0.459080,-0.046174,1.118737,185,176,179
-0.453572,-0.046174,1.118737,182,178,180
-0.448064,-0.046174,1.118737,184,180,182
-0.442556,-0.046174,1.118737,174,175,182
-0.437287,-0.046199,1.119348,177,174,175
-0.431776,-0.046199,1.119348,182,174,174
-0.426498,-0.046225,1.119959,177,172,174
-0.420984,-0.046225,1.119959,168,165,176
-0.416152,-0.046300,1.121796,182,174,179
-0.411078,-0.046351,1.123024,183,172,161
-0.405771,-0.046377,1.123639,173,172,171
-0.400459,-0.046402,1.124255,173,165,169
-0.395140,-0.046427,1.124871,122,123,114
-0.390030,-0.046478,1.126106,45,48,45
-0.384697,-0.046504,1.126724,53,53,49
-0.378941,-0.046478,1.126106,27,29,36
-0.373808,-0.046529,1.127343,15,17,21
-0.368663,-0.046581,1.128583,15,13,17
-0.362707,-0.046529,1.127343,16,12,15
-0.357353,-0.046555,1.127963,19,15,16
-0.351994,-0.046581,1.128583,22,24,20
-0.346437,-0.046581,1.128583,21,19,19
-0.341069,-0.046606,1.129205,14,16,18
-0.335694,-0.046632,1.129826,17,19,18
-0.330131,-0.046632,1.129826,18,17,20
-0.324569,-0.046632,1.129826,22,17,18
-0.319182,-0.046658,1.130449,22,19,17
-0.313790,-0.046683,1.131072,14,19,21
-0.308391,-0.046709,1.131696,16,17,19
-0.302987,-0.046735,1.132320,18,18,20
-0.297576,-0.046761,1.132946,20,17,20
-0.291998,-0.046761,1.132946,21,17,16
-0.286579,-0.046787,1.133572,19,19,23
-0.281153,-0.046812,1.134198,20,18,19
-0.275722,-0.046838,1.134825,20,19,18
-0.270434,-0.046890,1.136082,19,18,15
-0.264840,-0.046890,1.136082,17,18,18
-0.259247,-0.046890,1.136082,22,16,20
-0.253794,-0.046916,1.136712,19,17,17
-0.248336,-0.046942,1.137342,17,17,16
-0.242602,-0.046916,1.136712,18,17,17
-0.237005,-0.046916,1.136712,17,18,14
-0.231537,-0.046942,1.137342,19,17,22
-0.225813,-0.046916,1.136712,19,18,21
-0.220216,-0.046916,1.136712,21,17,23
-0.214620,-0.046916,1.136712,17,19,21
-0.209024,-0.046916,1.136712,18,18,22
-0.203540,-0.046942,1.137342,18,20,22
-0.198050,-0.046968,1.137973,17,17,19
-0.192555,-0.046994,1.138604,21,19,21
-0.186949,-0.046994,1.138604,25,19,21
-0.181444,-0.047020,1.139236,23,19,22
-0.175933,-0.047046,1.139869,23,21,19
-0.170321,-0.047046,1.139869,27,20,25
-0.164801,-0.047073,1.140503,23,19,22
-0.159186,-0.047073,1.140503,24,22,23
-0.153742,-0.047125,1.141772,21,23,24
-0.148616,-0.047283,1.145597,10,11,10
-0.143377,-0.047415,1.148804,8,8,6
-0.137875,-0.047468,1.150092,12,12,10
-0.132287,-0.047495,1.150737,14,14,10
-0.126622,-0.047495,1.150737,14,16,17
-0.121092,-0.047548,1.152030,17,15,17
-0.115420,-0.047548,1.152030,21,14,12
-0.109872,-0.047602,1.153325,15,15,18
-0.104194,-0.047602,1.153325,17,14,18
-0.098516,-0.047602,1.153325,19,15,18
-0.092890,-0.047629,1.153973,15,16,17
-0.087208,-0.047629,1.153973,16,16,17
-0.081527,-0.047629,1.153973,17,16,14
-0.075846,-0.047629,1.153973,10,16,14
-0.070204,-0.047655,1.154623,17,16,18
-0.064519,-0.047655,1.154623,12,18,18
-0.058868,-0.047682,1.155273,18,17,23
-0.053210,-0.047709,1.155924,15,17,20
-0.047546,-0.047736,1.156575,13,17,17
-0.041876,-0.047763,1.157228,15,15,13
-0.036199,-0.047790,1.157881,19,16,18
-0.030567,-0.047898,1.160500,19,18,17
-0.024825,-0.047844,1.159189,18,16,19
-0.019032,-0.047629,1.153973,22,21,21
-0.013306,-0.047468,1.150092,95,89,96
-0.007343,-0.045602,1.104881,217,212,230
-0.001873,-0.044854,1.086740,207,200,217
0.003454,-0.044547,1.079308,208,207,213
0.008713,-0.044267,1.072538,221,200,217
0.013899,-0.043969,1.065298,218,217,227
0.019045,-0.043742,1.059796,221,213,227
0.024100,-0.043450,1.052727,203,203,215
0.029119,-0.043206,1.046819,206,206,216
0.034116,-0.043008,1.042034,218,216,224
0.039107,-0.042856,1.038342,213,215,213
0.044085,-0.042726,1.035199,201,199,214
0.049058,-0.042619,1.032594,200,192,204
0.053979,-0.042490,1.029485,184,183,202
0.058811,-0.042321,1.025370,185,176,196
0.063669,-0.042194,1.022304,177,175,189
0.068565,-0.042110,1.020271,173,175,181
0.073442,-0.042027,1.018245,154,159,174
0.078300,-0.041943,1.016228,144,143,155
0.083220,-0.041902,1.015222,128,119,137
0.088131,-0.041860,1.014219,96,98,110
0.093033,-0.041819,1.013217,78,86,93
0.097924,-0.041778,1.012217,91,84,98
0.102806,-0.041737,1.011220,92,89,102
0.107679,-0.041696,1.010224,102,97,110
0.112597,-0.041675,1.009727,108,108,124
0.117510,-0.041654,1.009230,127,129,137
0.122419,-0.041634,1.008734,147,143,156
0.127385,-0.041634,1.008734,149,147,161
0.132286,-0.041614,1.008238,146,145,155
0.137250,-0.041614,1.008238,144,142,162
0.142284,-0.041634,1.008734,146,144,148
0.147323,-0.041654,1.009230,148,148,158
0.152366,-0.041675,1.009727,143,144,160
0.157492,-0.041716,1.010721,137,141,160
0.162549,-0.041737,1.011220,131,129,136
0.167692,-0.041778,1.012217,123,125,127
0.172932,-0.041840,1.013718,115,109,116
0.178099,-0.041881,1.014720,103,110,114
0.183366,-0.041943,1.016228,102,105,110
0.188463,-0.041964,1.016732,108,101,99
0.193757,-0.042027,1.018245,95,91,94
0.199066,-0.042089,1.019764,84,85,82
0.204493,-0.042173,1.021795,79,78,81
0.209942,-0.042257,1.023835,69,70,75
0.215628,-0.042384,1.026909,67,66,69
0.221349,-0.042512,1.030002,64,59,61
0.227218,-0.042662,1.033635,58,60,59
0.233129,-0.042813,1.037292,60,54,55
0.239203,-0.042987,1.041505,55,51,50
0.245578,-0.043206,1.046819,52,49,54
0.252017,-0.043427,1.052187,46,50,45
0.258657,-0.043674,1.058156,46,45,43
0.265372,-0.043923,1.064193,43,42,49
0.272448,-0.044221,1.071418,46,41,43
0.280210,-0.044617,1.081014,42,41,45
0.289189,-0.045189,1.094858,43,40,42
0.298401,-0.045775,1.109062,36,37,41
0.308700,-0.046504,1.126724,20,23,20
0.320585,-0.047442,1.149448,8,7,9
0.326977,-0.047548,1.152030,9,7,6
0.332836,-0.047575,1.152677,8,6,4
0.338701,-0.047602,1.153325,8,7,8
0.344186,-0.047575,1.152677,10,5,5
0.349861,-0.047575,1.152677,10,5,9
0.355936,-0.047629,1.153973,7,8,4
0.361414,-0.047602,1.153325,10,7,4
0.367092,-0.047602,1.153325,11,6,3
0.372980,-0.047629,1.153973,9,8,3
0.379087,-0.047682,1.155273,13,8,7
0.384775,-0.047682,1.155273,9,9,7
0.390463,-0.047682,1.155273,9,7,8
0.396150,-0.047682,1.155273,11,8,6
0.401838,-0.047682,1.155273,10,10,9
0.407526,-0.047682,1.155273,11,9,6
0.413446,-0.047709,1.155924,11,11,11
0.419137,-0.047709,1.155924,12,11,11
