x,y,z,r,g,b
0.803536,0.332738,1.309358,166,169,170
0.809466,0.332526,1.308523,163,162,164
0.815908,0.332526,1.308523,169,162,166
0.822350,0.332526,1.308523,173,167,171
0.828264,0.332314,1.307689,171,165,168
0.834171,0.332103,1.306856,166,167,166
0.840605,0.332103,1.306856,168,163,158
0.847578,0.332314,1.307689,163,166,174
0.854017,0.332314,1.307689,174,171,173
0.860455,0.332314,1.307689,163,172,175
0.866341,0.332103,1.306856,178,174,169
-1.436036,0.394875,1.524342,115,128,124
-1.423244,0.393414,1.518701,121,123,134
-1.411588,0.392253,1.514217,110,121,118
-1.401031,0.391386,1.510872,117,124,127
-1.389500,0.390237,1.506435,115,120,120
-1.376022,0.388525,1.499828,115,122,120
-1.364647,0.387392,1.495455,111,120,112
-1.352357,0.385986,1.490025,116,117,120
-1.341125,0.384868,1.485709,110,116,109
-1.329958,0.383756,1.481418,104,117,117
-1.319806,0.382927,1.478217,109,111,112
-1.308757,0.381826,1.473969,110,114,115
-1.298701,0.381005,1.470799,110,112,109
-1.287767,0.379916,1.466594,107,113,108
-1.272361,0.377488,1.457219,106,115,107
-1.262497,0.376685,1.454121,113,115,115
-1.252675,0.375886,1.451036,116,114,111
-1.242894,0.375090,1.447964,107,114,113
-1.232287,0.374034,1.443888,103,108,101
-1.221739,0.372984,1.439835,102,109,111
-1.209557,0.371420,1.433798,104,113,103
-1.198311,0.370127,1.428805,100,108,105
-1.187143,0.368843,1.423848,103,105,102
-1.174428,0.367060,1.416964,106,101,99
-1.162635,0.365545,1.411117,103,106,104
-1.154100,0.365043,1.409179,95,98,94
-1.144803,0.364292,1.406281,91,93,93
-1.136322,0.363794,1.404356,81,85,89
-1.129408,0.363794,1.404356,83,85,86
-1.120960,0.363296,1.402436,82,86,83
-1.114817,0.363545,1.403396,82,82,90
-1.108666,0.363794,1.404356,83,83,98
-1.102507,0.364043,1.405318,84,86,85
-1.094089,0.363545,1.403396,81,80,83
-1.087180,0.363545,1.403396,82,83,81
-1.080270,0.363545,1.403396,84,87,84
-1.074831,0.364043,1.405318,77,86,89
-1.069378,0.364542,1.407246,81,85,90
-1.063179,0.364792,1.408212,82,84,88
-1.057697,0.365294,1.410147,81,85,81
-1.051477,0.365545,1.411117,82,86,89
-1.044530,0.365545,1.411117,84,84,91
-1.037583,0.365545,1.411117,84,84,87
-1.031345,0.365797,1.412089,80,83,92
-1.025098,0.366049,1.413061,84,84,86
-1.018843,0.366301,1.414035,84,85,96
-1.011184,0.366049,1.413061,88,87,85
-1.004920,0.366301,1.414035,85,81,85
-0.997958,0.366301,1.414035,86,80,85
-0.990996,0.366301,1.414035,80,85,87
-0.983357,0.366049,1.413061,85,85,88
-0.977073,0.366301,1.414035,82,82,91
-0.970111,0.366301,1.414035,85,84,85
-0.962486,0.366049,1.413061,81,84,81
-0.956188,0.366301,1.414035,85,85,88
-0.949881,0.366553,1.415010,80,81,86
-0.942914,0.366553,1.415010,81,81,87
-0.937241,0.367060,1.416964,82,86,81
-0.932196,0.367822,1.419906,83,88,84
-0.926488,0.368332,1.421874,85,87,88
-0.920125,0.368587,1.422860,87,78,84
-0.913753,0.368843,1.423848,84,84,93
-0.908635,0.369612,1.426818,91,83,89
-0.902866,0.370127,1.428805,90,88,87
-0.895832,0.370127,1.428805,89,87,90
-0.890037,0.370643,1.430798,89,83,88
-0.883609,0.370902,1.431797,87,86,81
-0.877172,0.371161,1.432796,87,86,88
-0.870726,0.371420,1.433798,85,85,87
-0.864271,0.371680,1.434800,85,85,84
-0.858408,0.372201,1.436810,85,87,87
-0.851930,0.372461,1.437817,80,86,88
-0.845444,0.372723,1.438825,88,86,90
-0.838949,0.372984,1.439835,82,88,95
-0.831860,0.372984,1.439835,86,82,90
-0.825350,0.373246,1.440846,81,81,78
-0.818257,0.373246,1.440846,85,82,93
-0.811733,0.373508,1.441858,81,80,81
-0.804634,0.373508,1.441858,76,76,74
-0.798658,0.374034,1.443888,72,76,77
-0.791550,0.374034,1.443888,68,71,65
-0.784441,0.374034,1.443888,66,67,64
-0.777880,0.374297,1.444905,62,61,55
-0.770766,0.374297,1.444905,59,63,56
-0.763652,0.374297,1.444905,57,55,54
-0.757072,0.374561,1.445923,36,45,42
-0.751012,0.375090,1.447964,22,24,31
-0.744934,0.375620,1.450010,26,28,30
-0.738317,0.375886,1.451036,44,47,53
-0.732209,0.376418,1.453091,74,74,79
-0.726084,0.376952,1.455152,82,85,90
-0.719430,0.377220,1.456185,82,86,90
-0.712766,0.377488,1.457219,85,83,84
-0.706094,0.377756,1.458255,93,86,90
-0.699411,0.378024,1.459292,89,88,91
-0.692227,0.378024,1.459292,91,94,87
-0.686018,0.378563,1.461371,94,87,100
-0.679792,0.379103,1.463456,90,91,94
-0.673067,0.379374,1.464500,93,91,92
-0.665857,0.379374,1.464500,97,89,93
-0.659117,0.379645,1.465546,91,92,93
-0.651436,0.379374,1.464500,87,90,97
-0.645609,0.380188,1.467643,92,95,100
-0.639298,0.380732,1.469745,96,96,94
-0.632515,0.381005,1.470799,89,95,90
-0.626171,0.381552,1.472911,99,91,102
-0.620256,0.382376,1.476090,90,94,92
-0.612988,0.382376,1.476090,87,92,92
-0.605721,0.382376,1.476090,95,93,95
-0.598885,0.382651,1.477152,94,92,93
-0.592466,0.383203,1.479282,95,97,95
-0.586028,0.383756,1.481418,102,97,106
-0.579152,0.384034,1.482489,100,94,102
-0.572681,0.384589,1.484634,91,98,102
-0.565781,0.384868,1.485709,91,97,103
-0.558467,0.384868,1.485709,102,97,98
-0.551552,0.385147,1.486786,101,92,103
-0.544626,0.385426,1.487864,97,98,93
-0.538082,0.385986,1.490025,99,96,98
-0.530746,0.385986,1.490025,100,102,103
-0.523410,0.385986,1.490025,103,104,101
-0.515700,0.385706,1.488944,95,95,102
-0.509108,0.386266,1.491108,103,103,99
-0.502497,0.386829,1.493278,98,100,111
-0.495506,0.387110,1.494366,103,100,101
-0.488505,0.387392,1.495455,98,98,102
-0.481845,0.387958,1.497638,102,99,101
-0.474818,0.388241,1.498732,99,100,98
-0.467781,0.388525,1.499828,104,101,103
-0.461071,0.389094,1.502024,105,99,110
-0.454008,0.389379,1.503124,109,104,95
-0.446935,0.389665,1.504226,111,99,103
-0.439852,0.389950,1.505330,100,104,108
-0.432441,0.389950,1.505330,104,105,107
-0.425342,0.390237,1.506435,106,102,109
-0.418540,0.390811,1.508650,103,102,102
-0.411415,0.391098,1.509760,102,100,102
-0.404280,0.391386,1.510872,99,104,103
-0.397720,0.392253,1.514217,103,104,98
-0.390842,0.392833,1.516456,105,102,96
-0.383376,0.392833,1.516456,107,99,105
-0.375910,0.392833,1.516456,102,102,104
-0.368989,0.393414,1.518701,103,103,112
-0.361245,0.393123,1.517577,111,106,109
-0.353512,0.392833,1.516456,87,86,84
-0.346302,0.393123,1.517577,91,96,90
-0.338580,0.392833,1.516456,102,100,108
-0.330870,0.392542,1.515336,99,103,102
-0.323648,0.392833,1.516456,104,101,105
-0.316416,0.393123,1.517577,97,103,108
-0.308716,0.392833,1.516456,104,104,110
-0.300806,0.392253,1.514217,110,107,106
-0.293135,0.391963,1.513101,106,97,101
-0.285264,0.391386,1.510872,106,101,96
-0.277214,0.390523,1.507542,96,103,109
-0.269990,0.390811,1.508650,101,100,102
-0.262756,0.391098,1.509760,106,104,109
-0.255511,0.391386,1.510872,103,101,109
-0.248438,0.391963,1.513101,101,110,98
-0.240989,0.391963,1.513101,101,109,106
-0.233539,0.391963,1.513101,111,107,100
-0.226591,0.392833,1.516456,111,100,103
-0.219450,0.393414,1.518701,101,104,109
-0.212287,0.393997,1.520952,107,106,115
-0.204951,0.394290,1.522081,111,101,107
-0.197604,0.394582,1.523211,104,104,106
-0.190529,0.395463,1.526610,105,99,115
-0.183013,0.395463,1.526610,113,104,109
-0.175497,0.395463,1.526610,111,105,113
-0.168357,0.396348,1.530026,113,106,114
-0.161185,0.397236,1.533456,115,105,101
-0.153865,0.397831,1.535752,110,105,110
-0.146414,0.398129,1.536902,106,102,108
-0.138226,0.396348,1.530026,110,107,108
-0.130304,0.395169,1.525476,104,107,107
-0.122068,0.392833,1.516456,109,106,107
-0.114264,0.391675,1.511986,101,107,106
-0.106820,0.391675,1.511986,112,106,110
-0.100263,0.395169,1.525476,107,102,110
-0.092615,0.394582,1.523211,104,100,99
-0.085116,0.394582,1.523211,110,102,107
-0.031332,0.197438,0.762171,59,62,55
-0.027276,0.195262,0.753771,64,65,62
-0.023530,0.194975,0.752665,54,64,64
-0.019796,0.194690,0.751562,60,54,53
-0.016025,0.193837,0.748273,53,52,45
-0.012287,0.192993,0.745013,48,48,46
-0.008588,0.192295,0.742317,45,41,37
-0.004920,0.191740,0.740175,43,42,36
-0.001272,0.191188,0.738045,40,35,32
0.002355,0.190639,0.735927,35,33,30
0.005965,0.190230,0.734347,38,33,32
0.009560,0.189822,0.732773,38,35,29
0.013140,0.189416,0.731206,36,33,28
0.016680,0.188744,0.728610,38,32,36
0.020239,0.188476,0.727576,41,32,26
0.023787,0.188209,0.726546,44,33,35
0.027325,0.187943,0.725518,44,40,32
0.030832,0.187545,0.723982,45,41,33
0.034348,0.187281,0.722961,43,41,38
0.037880,0.187149,0.722452,39,41,37
0.041437,0.187149,0.722452,49,40,39
0.044931,0.186886,0.721436,44,44,40
0.048448,0.186754,0.720929,52,45,41
0.051998,0.186754,0.720929,52,45,41
0.055508,0.186623,0.720423,55,46,41
0.059055,0.186623,0.720423,57,45,43
0.062602,0.186623,0.720423,53,48,45
0.066242,0.186886,0.721436,56,50,48
0.069794,0.186886,0.721436,66,53,55
0.073449,0.187149,0.722452,56,54,50
0.077060,0.187281,0.722961,55,54,50
0.080790,0.187677,0.724493,71,58,53
0.084476,0.187943,0.725518,60,63,60
0.088173,0.188209,0.726546,64,64,65
0.091880,0.188476,0.727576,76,73,69
0.095734,0.189012,0.729646,91,80,81
0.099538,0.189416,0.731206,90,91,87
0.103359,0.189822,0.732773,114,96,100
0.107273,0.190366,0.734873,110,106,109
0.111210,0.190913,0.736984,138,125,117
0.115169,0.191463,0.739108,138,131,127
0.119324,0.192295,0.742317,140,133,131
0.123515,0.193133,0.745554,122,125,126
0.127649,0.193837,0.748273,119,116,125
0.131814,0.194547,0.751012,126,121,128
0.136109,0.195405,0.754325,149,142,141
0.334383,0.432820,1.670818,85,82,83
0.345990,0.437091,1.687306,93,72,79
0.343561,0.423846,1.636176,79,74,66
0.349387,0.421159,1.625804,78,72,71
0.355981,0.419497,1.619388,74,78,66
0.365976,0.421827,1.628385,77,71,70
0.374587,0.422498,1.630973,79,73,63
0.382921,0.422834,1.632271,80,66,64
0.389717,0.421493,1.627093,70,68,60
0.396470,0.420160,1.621948,63,64,60
0.402546,0.418177,1.614292,60,64,63
0.409849,0.417520,1.611755,69,65,60
0.418771,0.418506,1.615563,66,61,54
0.427398,0.419166,1.618111,65,57,59
0.435708,0.419497,1.619388,63,62,57
0.443681,0.419497,1.619388,57,57,51
0.450942,0.418836,1.616836,57,58,49
0.457819,0.417848,1.613022,61,55,46
0.465030,0.417192,1.610490,59,58,54
0.471847,0.416212,1.606707,57,56,47
0.479007,0.415561,1.604194,56,52,50
0.485009,0.413943,1.597947,59,57,47
0.490965,0.412337,1.591749,54,54,43
0.495725,0.409794,1.581931,60,49,57
0.499278,0.406347,1.568627,54,51,49
0.503537,0.403571,1.557908,50,46,43
0.510819,0.403264,1.556726,50,47,39
0.517697,0.402653,1.554367,19,13,14
0.523367,0.401134,1.548502,10,8,5
0.527409,0.398428,1.538054,29,22,14
0.530211,0.394875,1.524342,44,31,21
0.533357,0.391675,1.511986,52,33,21
0.536453,0.388525,1.499828,53,37,20
0.539108,0.385147,1.486786,59,38,23
0.542107,0.382101,1.475028,55,41,31
0.544670,0.378833,1.462412,56,44,32
0.545647,0.374561,1.445923,57,40,26
0.545083,0.369355,1.425827,59,40,29
0.546407,0.365545,1.411117,61,41,35
0.548077,0.362059,1.397660,57,45,28
0.549716,0.358639,1.384457,62,47,27
0.552062,0.355758,1.373336,65,44,30
0.554002,0.352689,1.361489,58,45,29
0.557009,0.350364,1.352515,64,36,27
0.560344,0.348298,1.344538,53,39,27
0.562540,0.345580,1.334047,51,34,28
0.566529,0.344014,1.328003,84,81,77
0.571956,0.343348,1.325429,129,135,131
0.578108,0.343126,1.324574,154,149,146
0.584253,0.342905,1.323719,152,150,151
0.590770,0.342905,1.323719,157,149,157
0.597287,0.342905,1.323719,157,148,156
0.603414,0.342684,1.322866,152,154,158
0.610321,0.342905,1.323719,162,154,149
0.616838,0.342905,1.323719,152,146,157
0.622953,0.342684,1.322866,156,155,153
0.629466,0.342684,1.322866,155,151,162
0.636389,0.342905,1.323719,169,158,166
0.642906,0.342905,1.323719,165,159,152
0.649423,0.342905,1.323719,162,155,153
0.656363,0.343126,1.324574,163,157,160
0.662457,0.342905,1.323719,169,159,153
0.668974,0.342905,1.323719,164,163,160
0.675491,0.342905,1.323719,160,155,154
0.681568,0.342684,1.322866,167,151,151
0.688081,0.342684,1.322866,161,156,166
0.694594,0.342684,1.322866,160,158,165
0.701107,0.342684,1.322866,167,156,162
0.707164,0.342463,1.322013,167,159,161
0.713672,0.342463,1.322013,161,158,153
0.719717,0.342242,1.321162,163,158,158
0.726222,0.342242,1.321162,166,165,157
0.732255,0.342022,1.320312,161,159,155
0.738280,0.341802,1.319463,170,164,169
0.744776,0.341802,1.319463,166,164,156
0.750307,0.341363,1.317768,161,167,164
0.755824,0.340925,1.316077,170,163,163
0.761815,0.340707,1.315234,167,162,160
0.767798,0.340488,1.314391,171,165,162
0.773773,0.340270,1.313550,169,164,163
0.779242,0.339835,1.311870,170,163,167
0.784698,0.339401,1.310194,165,165,169
0.790139,0.338968,1.308523,169,165,164
0.796073,0.338752,1.307689,165,170,163
0.802512,0.338752,1.307689,169,170,165
0.808950,0.338752,1.307689,172,168,177
0.814869,0.338537,1.306856,169,165,168
0.821303,0.338537,1.306856,174,171,171
0.827737,0.338537,1.306856,169,163,161
0.834171,0.338537,1.306856,170,167,172
0.840605,0.338537,1.306856,169,167,168
0.847039,0.338537,1.306856,169,165,172
0.853473,0.338537,1.306856,168,169,175
0.860455,0.338752,1.307689,162,173,161
0.866341,0.338537,1.306856,172,167,175
-1.434970,0.402082,1.523211,120,129,126
-1.424299,0.401188,1.519826,115,122,126
-1.411588,0.399708,1.514217,122,122,126
-1.401031,0.398825,1.510872,121,120,121
-1.390521,0.397945,1.507542,111,121,114
-1.376022,0.395909,1.499828,112,115,128
-1.364647,0.394755,1.495455,118,125,123
-1.352357,0.393322,1.490025,111,119,113
-1.341125,0.392182,1.485709,111,113,115
-1.329958,0.391050,1.481418,114,116,109
-1.320758,0.390486,1.479282,112,117,111
-1.308757,0.389083,1.473969,111,123,110
-1.297771,0.387968,1.469745,97,115,109
-1.287767,0.387136,1.466594,114,114,117
-1.272361,0.384662,1.457219,111,115,121
-1.262497,0.383844,1.454121,111,115,109
-1.253561,0.383301,1.452063,113,109,114
-1.243772,0.382489,1.448986,102,109,111
-1.233155,0.381411,1.444905,106,113,105
-1.222597,0.380340,1.440846,106,114,96
-1.209557,0.378479,1.433798,106,108,114
-1.199146,0.377424,1.429801,109,110,102
-1.187143,0.375853,1.423848,100,106,102
-1.175240,0.374294,1.417944,117,111,103
-1.163435,0.372749,1.412089,105,104,101
-1.154100,0.371981,1.409179,104,101,102
-1.144803,0.371216,1.406281,84,92,90
-1.136322,0.370708,1.404356,75,84,90
-1.128636,0.370454,1.403396,83,79,86
-1.120960,0.370201,1.402436,80,84,86
-1.114817,0.370454,1.403396,90,84,91
-1.109425,0.370962,1.405318,76,85,86
-1.102507,0.370962,1.405318,81,87,87
-1.094089,0.370454,1.403396,86,86,85
-1.087180,0.370454,1.403396,85,84,87
-1.080270,0.370454,1.403396,85,84,90
-1.075568,0.371216,1.406281,82,84,87
-1.069378,0.371470,1.407246,80,83,83
-1.063909,0.371981,1.409179,84,86,79
-1.057697,0.372236,1.410147,84,85,84
-1.051477,0.372492,1.411117,83,84,78
-1.045249,0.372749,1.412089,85,85,87
-1.037583,0.372492,1.411117,78,86,85
-1.032055,0.373005,1.413061,83,83,88
-1.025098,0.373005,1.413061,84,85,82
-1.018141,0.373005,1.413061,85,79,91
-1.011881,0.373262,1.414035,79,83,84
-1.004920,0.373262,1.414035,75,83,92
-0.997958,0.373262,1.414035,80,87,86
-0.990996,0.373262,1.414035,82,84,79
-0.983357,0.373005,1.413061,82,87,96
-0.977073,0.373262,1.414035,84,81,94
-0.970111,0.373262,1.414035,88,86,82
-0.963150,0.373262,1.414035,90,85,87
-0.956847,0.373520,1.415010,87,84,89
-0.950536,0.373778,1.415987,84,84,83
-0.943565,0.373778,1.415987,84,86,87
-0.937241,0.374036,1.416964,87,85,92
-0.932196,0.374812,1.419906,87,83,88
-0.926488,0.375332,1.421874,79,83,85
-0.920125,0.375592,1.422860,84,84,86
-0.914388,0.376114,1.424837,85,87,90
-0.908635,0.376637,1.426818,85,87,95
-0.902866,0.377161,1.428805,83,84,84
-0.896456,0.377424,1.429801,83,88,90
-0.890658,0.377951,1.431797,84,85,87
-0.883609,0.377951,1.431797,93,86,87
-0.877785,0.378479,1.433798,87,84,93
-0.871335,0.378744,1.434800,91,83,86
-0.864876,0.379009,1.435804,82,83,91
-0.859009,0.379540,1.437817,84,84,84
-0.852528,0.379806,1.438825,89,86,84
-0.846037,0.380073,1.439835,80,88,91
-0.838949,0.380073,1.439835,82,83,83
-0.832444,0.380340,1.440846,80,81,87
-0.824771,0.380073,1.439835,86,76,86
-0.818257,0.380340,1.440846,80,80,75
-0.811733,0.380607,1.441858,76,82,79
-0.804634,0.380607,1.441858,77,73,80
-0.797536,0.380607,1.441858,64,70,72
-0.791550,0.381143,1.443888,65,65,67
-0.784441,0.381143,1.443888,62,62,63
-0.777880,0.381411,1.444905,60,63,61
-0.770224,0.381143,1.443888,59,60,65
-0.764190,0.381680,1.445923,66,63,62
-0.757072,0.381680,1.445923,64,61,62
-0.750482,0.381949,1.446943,48,56,53
-0.744408,0.382489,1.448986,75,74,68
-0.737796,0.382759,1.450010,89,92,86
-0.731691,0.383301,1.452063,89,86,88
-0.726084,0.384116,1.455152,85,84,88
-0.719430,0.384389,1.456185,87,87,87
-0.712766,0.384662,1.457219,88,86,86
-0.706596,0.385209,1.459292,87,86,94
-0.699411,0.385209,1.459292,88,87,89
-0.692227,0.385209,1.459292,90,92,96
-0.685530,0.385483,1.460331,91,89,95
-0.679307,0.386033,1.462412,92,91,94
-0.673067,0.386584,1.464500,93,94,92
-0.666332,0.386860,1.465546,92,97,97
-0.659117,0.386860,1.465546,90,95,91
-0.651436,0.386584,1.464500,96,92,93
-0.646071,0.387691,1.468693,100,92,95
-0.639756,0.388246,1.470799,96,91,98
-0.632968,0.388525,1.471854,92,95,94
-0.626621,0.389083,1.473969,95,96,98
-0.620256,0.389643,1.476090,90,94,91
-0.612988,0.389643,1.476090,99,91,95
-0.606157,0.389924,1.477152,98,98,86
-0.599316,0.390204,1.478217,95,93,96
-0.592466,0.390486,1.479282,99,98,105
-0.586028,0.391050,1.481418,99,98,97
-0.579152,0.391332,1.482489,101,93,95
-0.572681,0.391899,1.484634,96,97,108
-0.565372,0.391899,1.484634,93,95,100
-0.558467,0.392182,1.485709,96,99,101
-0.551952,0.392751,1.487864,96,100,99
-0.545022,0.393036,1.488944,99,98,102
-0.537691,0.393036,1.488944,104,98,95
-0.530746,0.393322,1.490025,106,99,98
-0.523410,0.393322,1.490025,101,98,100
-0.516074,0.393322,1.490025,108,101,100
-0.509478,0.393894,1.492192,93,98,100
-0.502497,0.394180,1.493278,100,100,96
-0.495867,0.394755,1.495455,96,101,100
-0.488505,0.394755,1.495455,104,95,103
-0.481845,0.395331,1.497638,105,103,105
-0.474818,0.395620,1.498732,97,103,100
-0.468123,0.396199,1.500925,106,103,106
-0.461409,0.396779,1.503124,98,101,102
-0.453676,0.396489,1.502024,98,103,105
-0.446935,0.397070,1.504226,105,98,102
-0.439852,0.397362,1.505330,109,98,105
-0.432441,0.397362,1.505330,103,105,106
-0.425030,0.397362,1.505330,107,99,107
-0.418540,0.398238,1.508650,97,102,109
-0.411415,0.398531,1.509760,98,101,108
-0.404280,0.398825,1.510872,105,100,107
-0.397426,0.399413,1.513101,105,103,114
-0.390553,0.400003,1.515336,105,104,110
-0.383093,0.400003,1.515336,108,104,99
-0.375910,0.400298,1.516456,107,101,105
-0.368716,0.400595,1.517577,108,100,109
-0.361245,0.400595,1.517577,101,108,109
-0.353512,0.400298,1.516456,86,82,87
-0.346046,0.400298,1.516456,93,91,93
-0.338580,0.400298,1.516456,103,101,97
-0.330870,0.400003,1.515336,101,106,105
-0.323648,0.400298,1.516456,106,105,103
-0.316416,0.400595,1.517577,100,101,100
-0.308488,0.400003,1.515336,100,100,110
-0.300584,0.399413,1.513101,99,106,110
-0.292919,0.399119,1.511986,112,104,110
-0.285264,0.398825,1.510872,108,102,107
-0.277214,0.397945,1.507542,102,106,108
-0.269990,0.398238,1.508650,103,99,104
-0.262756,0.398531,1.509760,104,102,114
-0.255511,0.398825,1.510872,105,102,105
-0.248438,0.399413,1.513101,102,105,102
-0.240634,0.398825,1.510872,99,106,107
-0.233195,0.398825,1.510872,106,99,106
-0.226591,0.400298,1.516456,106,104,105
-0.219450,0.400891,1.518701,104,105,106
-0.212130,0.401188,1.519826,110,102,106
-0.204951,0.401783,1.522081,100,103,107
-0.197604,0.402082,1.523211,102,105,108
-0.190387,0.402679,1.525476,110,102,115
-0.183149,0.403279,1.527747,109,105,110
-0.175628,0.403279,1.527747,108,105,105
-0.168482,0.404182,1.531168,103,105,103
-0.161305,0.405089,1.534603,107,109,107
-0.153865,0.405392,1.535752,106,105,111
-0.146304,0.405392,1.535752,100,103,109
-0.138226,0.403881,1.530026,106,105,108
-0.130304,0.402679,1.525476,107,106,105
-0.121978,0.400003,1.515336,114,104,109
-0.114180,0.398825,1.510872,103,105,111
-0.106663,0.398531,1.509760,113,107,114
-0.100114,0.402082,1.523211,103,101,104
-0.092341,0.400891,1.518701,108,101,108
-0.085242,0.402679,1.525476,100,110,105
-0.031332,0.201190,0.762171,62,59,63
-0.027256,0.198827,0.753218,67,61,63
-0.023530,0.198681,0.752665,62,60,57
-0.019810,0.198535,0.752113,64,56,56
-0.016025,0.197521,0.748273,47,53,50
-0.012296,0.196804,0.745554,49,47,45
-0.008595,0.196091,0.742855,48,46,40
-0.004916,0.195243,0.739641,49,42,38
-0.001272,0.194822,0.738045,40,39,42
0.002355,0.194262,0.735927,40,34,30
0.005965,0.193845,0.734347,40,35,34
0.009560,0.193430,0.732773,46,38,31
0.013140,0.193016,0.731206,45,34,30
0.016692,0.192468,0.729127,39,34,30
0.020239,0.192058,0.727576,38,38,34
0.023770,0.191650,0.726031,46,41,34
0.027306,0.191379,0.725005,45,39,40
0.030832,0.191109,0.723982,44,41,37
0.034372,0.190975,0.723471,47,39,38
0.037907,0.190840,0.722961,48,41,40
0.041408,0.190571,0.721944,53,43,44
0.044931,0.190437,0.721436,53,46,43
0.048448,0.190304,0.720929,54,45,41
0.051998,0.190304,0.720929,51,43,48
0.055547,0.190304,0.720929,52,46,44
0.059096,0.190304,0.720929,46,44,40
0.062646,0.190304,0.720929,54,50,48
0.066195,0.190304,0.720929,54,50,42
0.069843,0.190571,0.721944,56,53,51
0.073449,0.190706,0.722452,59,55,51
0.077060,0.190840,0.722961,58,51,50
0.080733,0.191109,0.723982,66,60,56
0.084416,0.191379,0.725005,66,58,64
0.088173,0.191786,0.726546,72,63,65
0.091945,0.192194,0.728092,69,60,58
0.095665,0.192468,0.729127,68,64,62
0.099467,0.192879,0.730685,93,85,83
0.103285,0.193292,0.732250,112,100,102
0.107273,0.193984,0.734873,131,110,108
0.111210,0.194542,0.736984,137,126,127
0.115169,0.195102,0.739108,136,128,124
0.119324,0.195949,0.742317,136,127,131
0.123515,0.196804,0.745554,117,124,126
0.127649,0.197521,0.748273,120,114,113
0.131814,0.198244,0.751012,132,131,142
0.136109,0.199119,0.754325,159,160,151
0.334656,0.441405,1.672180,80,77,70
0.345990,0.445398,1.687306,80,77,78
0.343287,0.431557,1.634872,80,76,73
0.349110,0.428823,1.624517,78,73,74
0.356262,0.427807,1.620667,77,73,72
0.365976,0.429844,1.628385,73,68,71
0.374290,0.430186,1.629678,75,67,66
0.382617,0.430528,1.630973,68,69,70
0.389717,0.429503,1.627093,70,69,66
0.396470,0.428145,1.621948,73,66,57
0.402546,0.426124,1.614292,64,61,65
0.410171,0.425789,1.613022,65,62,60
0.418771,0.426460,1.615563,61,58,55
0.427398,0.427132,1.618111,61,57,59
0.436052,0.427807,1.620667,65,54,59
0.443331,0.427132,1.618111,64,62,56
0.450587,0.426460,1.615563,61,57,49
0.457460,0.425455,1.611755,60,58,53
0.465030,0.425121,1.610490,59,56,58
0.471847,0.424122,1.606707,54,56,53
0.478633,0.423128,1.602941,60,54,53
0.485009,0.421810,1.597947,61,50,50
0.490965,0.420174,1.591749,52,51,52
0.496107,0.417904,1.583152,54,51,48
0.500043,0.414704,1.571029,51,51,44
0.504302,0.411866,1.560277,55,48,46
0.510819,0.410929,1.556726,54,48,44
0.517697,0.410306,1.554367,22,13,13
0.523367,0.408758,1.548502,12,9,8
0.527804,0.406304,1.539208,28,22,13
0.530211,0.402380,1.524342,48,31,18
0.533357,0.399119,1.511986,49,36,23
0.536845,0.396199,1.500925,55,32,18
0.539108,0.392467,1.486786,57,37,27
0.542107,0.389363,1.475028,59,43,31
0.544282,0.385758,1.461371,59,41,23
0.546032,0.381949,1.446943,59,45,28
0.545462,0.376637,1.426818,54,43,32
0.546783,0.372749,1.412089,60,40,35
0.548077,0.368940,1.397660,54,45,37
0.549716,0.365455,1.384457,49,42,28
0.552062,0.362519,1.373336,55,45,34
0.554002,0.359392,1.361489,53,44,31
0.557377,0.357258,1.353407,57,39,29
0.560711,0.355150,1.345419,51,37,33
0.562540,0.352148,1.334047,44,32,27
0.566529,0.350553,1.328003,82,81,80
0.571587,0.349647,1.324574,131,131,123
0.577735,0.349422,1.323719,157,156,148
0.584253,0.349422,1.323719,156,146,147
0.590389,0.349197,1.322866,158,152,145
0.597287,0.349422,1.323719,153,149,154
0.603414,0.349197,1.322866,160,150,149
0.609927,0.349197,1.322866,161,151,149
0.616440,0.349197,1.322866,150,152,155
0.622953,0.349197,1.322866,153,152,154
0.629466,0.349197,1.322866,162,153,157
0.635979,0.349197,1.322866,154,155,163
0.642906,0.349422,1.323719,165,159,161
0.649004,0.349197,1.322866,158,158,162
0.655940,0.349422,1.323719,166,157,160
0.662030,0.349197,1.322866,162,159,153
0.668543,0.349197,1.322866,157,156,157
0.675491,0.349422,1.323719,166,159,157
0.681568,0.349197,1.322866,160,161,164
0.687638,0.348972,1.322013,162,157,157
0.694147,0.348972,1.322013,158,158,153
0.701107,0.349197,1.322866,164,160,167
0.707164,0.348972,1.322013,163,156,168
0.713213,0.348747,1.321162,170,159,170
0.719254,0.348522,1.320312,165,155,163
0.725754,0.348522,1.320312,158,154,170
0.732255,0.348522,1.320312,168,161,162
0.738280,0.348298,1.319463,156,161,169
0.743819,0.347851,1.317768,164,166,162
0.749344,0.347405,1.316077,162,162,163
0.755339,0.347182,1.315234,166,165,175
0.761327,0.346960,1.314391,162,162,165
0.767306,0.346737,1.313550,166,161,155
0.773278,0.346516,1.312709,163,163,156
0.778745,0.346073,1.311032,172,160,161
0.783697,0.345411,1.308523,171,167,166
0.789635,0.345190,1.307689,157,169,165
0.796073,0.345190,1.307689,167,167,169
0.802000,0.344971,1.306856,165,169,167
0.808950,0.345190,1.307689,162,162,164
0.814869,0.344971,1.306856,166,162,157
0.821303,0.344971,1.306856,167,166,169
0.826683,0.344532,1.305194,169,171,166
0.833640,0.344751,1.306025,170,163,176
0.840605,0.344971,1.306856,165,167,168
0.847039,0.344971,1.306856,165,168,170
0.853473,0.344971,1.306856,173,168,170
0.859907,0.344971,1.306856,165,168,173
0.865238,0.344532,1.305194,167,168,170
-1.434970,0.409581,1.523211,123,129,112
-1.424299,0.408671,1.519826,116,124,131
-1.412631,0.407463,1.515336,121,126,117
-1.401031,0.406263,1.510872,107,120,118
-1.390521,0.405368,1.507542,122,121,117
-1.375016,0.402999,1.498732,110,121,114
-1.364647,0.402118,1.495455,109,121,119
-1.351375,0.400367,1.488944,114,114,113
-1.341125,0.399497,1.485709,109,118,108
-1.329958,0.398343,1.481418,115,114,114
-1.319806,0.397482,1.478217,110,114,113
-1.308757,0.396340,1.473969,110,117,111
-1.297771,0.395204,1.469745,103,109,114
-1.287767,0.394357,1.466594,106,113,112
-1.273266,0.392115,1.458255,103,115,107
-1.262497,0.391003,1.454121,112,108,108
-1.254449,0.390726,1.453091,102,110,106
-1.244651,0.389898,1.450010,102,107,108
-1.233155,0.388525,1.444905,107,105,105
-1.223456,0.387706,1.441858,109,112,107
-1.211250,0.386078,1.435804,101,110,106
-1.199146,0.384464,1.429801,104,108,115
-1.187143,0.382863,1.423848,103,108,96
-1.175240,0.381275,1.417944,97,108,103
-1.163435,0.379701,1.412089,101,106,99
-1.154893,0.379179,1.410147,94,105,102
-1.146375,0.378658,1.408212,88,95,95
-1.136322,0.377622,1.404356,79,81,80
-1.129408,0.377622,1.404356,82,84,90
-1.121726,0.377363,1.403396,82,82,89
-1.115580,0.377622,1.404356,79,82,95
-1.110186,0.378139,1.406281,82,81,87
-1.103262,0.378139,1.406281,82,84,86
-1.094838,0.377622,1.404356,82,84,84
-1.087924,0.377622,1.404356,79,85,88
-1.081750,0.377880,1.405318,84,85,84
-1.076306,0.378399,1.407246,83,85,82
-1.069378,0.378399,1.407246,81,86,90
-1.063909,0.378918,1.409179,86,80,87
-1.057697,0.379179,1.410147,87,80,85
-1.052201,0.379701,1.412089,80,84,85
-1.045249,0.379701,1.412089,78,85,84
-1.038297,0.379701,1.412089,85,84,91
-1.032055,0.379962,1.413061,82,84,90
-1.025805,0.380224,1.414035,79,80,92
-1.018843,0.380224,1.414035,77,81,82
-1.012579,0.380486,1.415010,81,86,92
-1.005613,0.380486,1.415010,80,86,100
-0.997958,0.380224,1.414035,89,84,87
-0.991680,0.380486,1.415010,85,86,86
-0.984713,0.380486,1.415010,85,86,89
-0.977747,0.380486,1.415010,81,83,84
-0.970111,0.380224,1.414035,81,85,76
-0.963814,0.380486,1.415010,81,79,85
-0.957508,0.380749,1.415987,78,85,86
-0.951850,0.381275,1.417944,91,83,83
-0.944217,0.381012,1.416964,81,82,88
-0.937241,0.381012,1.416964,81,81,89
-0.932196,0.381803,1.419906,83,84,87
-0.926488,0.382332,1.421874,85,84,85
-0.920763,0.382863,1.423848,86,92,85
-0.915023,0.383395,1.425827,80,86,88
-0.909267,0.383929,1.427811,85,81,86
-0.903495,0.384464,1.429801,82,87,93
-0.897081,0.384732,1.430798,82,82,85
-0.890658,0.385000,1.431797,86,81,86
-0.884226,0.385269,1.432796,87,84,88
-0.877785,0.385538,1.433798,86,84,96
-0.871945,0.386078,1.435804,83,83,82
-0.865481,0.386348,1.436810,85,82,88
-0.859009,0.386619,1.437817,76,81,86
-0.852528,0.386890,1.438825,81,90,90
-0.846037,0.387162,1.439835,77,82,89
-0.838949,0.387162,1.439835,81,76,84
-0.831860,0.387162,1.439835,84,81,86
-0.824771,0.387162,1.439835,80,82,81
-0.818257,0.387433,1.440846,76,72,75
-0.811733,0.387706,1.441858,70,71,75
-0.804634,0.387706,1.441858,73,71,69
-0.797536,0.387706,1.441858,68,72,66
-0.791550,0.388251,1.443888,77,69,76
-0.784441,0.388251,1.443888,76,69,71
-0.777332,0.388251,1.443888,69,73,72
-0.770766,0.388525,1.444905,74,72,69
-0.763652,0.388525,1.444905,82,75,82
-0.756539,0.388525,1.444905,84,80,72
-0.750482,0.389073,1.446943,58,50,59
-0.743358,0.389073,1.446943,59,54,61
-0.737274,0.389622,1.448986,85,81,82
-0.731691,0.390450,1.452063,90,87,92
-0.725569,0.391003,1.454121,89,84,87
-0.718919,0.391280,1.455152,87,85,87
-0.712766,0.391836,1.457219,87,89,83
-0.706596,0.392393,1.459292,92,84,91
-0.698914,0.392115,1.458255,89,89,87
-0.691243,0.391836,1.457219,92,87,99
-0.685042,0.392393,1.459292,95,90,90
-0.679307,0.393233,1.462412,91,89,92
-0.673548,0.394075,1.465546,90,89,89
-0.666808,0.394357,1.466594,95,91,97
-0.659588,0.394357,1.466594,94,92,97
-0.651902,0.394075,1.465546,96,96,94
-0.646534,0.395204,1.469745,91,91,96
-0.640674,0.396055,1.472911,92,95,92
-0.633878,0.396340,1.473969,87,91,98
-0.627072,0.396625,1.475028,97,94,94
-0.620702,0.397196,1.477152,90,93,96
-0.612988,0.396910,1.476090,94,90,94
-0.605721,0.396910,1.476090,96,95,98
-0.599748,0.397769,1.479282,98,97,91
-0.592893,0.398056,1.480350,93,97,95
-0.586451,0.398631,1.482489,93,96,103
-0.579990,0.399208,1.484634,99,103,95
-0.572681,0.399208,1.484634,99,96,92
-0.565781,0.399497,1.485709,100,95,90
-0.558467,0.399497,1.485709,90,98,96
-0.551952,0.400076,1.487864,95,98,101
-0.545022,0.400367,1.488944,96,98,103
-0.538082,0.400657,1.490025,96,98,91
-0.530746,0.400657,1.490025,97,96,98
-0.523410,0.400657,1.490025,104,99,97
-0.515700,0.400367,1.488944,102,98,107
-0.509108,0.400949,1.491108,101,99,103
-0.502497,0.401532,1.493278,91,98,98
-0.495506,0.401825,1.494366,101,100,105
-0.488505,0.402118,1.495455,103,100,96
-0.481493,0.402411,1.496546,106,99,97
-0.474818,0.402999,1.498732,110,98,108
-0.468123,0.403588,1.500925,101,99,100
-0.461409,0.404180,1.503124,107,102,102
-0.454008,0.404180,1.503124,99,101,111
-0.446935,0.404476,1.504226,105,103,95
-0.439852,0.404773,1.505330,102,99,100
-0.432441,0.404773,1.505330,106,100,101
-0.425030,0.404773,1.505330,102,99,102
-0.418540,0.405666,1.508650,109,102,105
-0.411415,0.405964,1.509760,107,103,101
-0.404280,0.406263,1.510872,104,104,110
-0.397426,0.406862,1.513101,104,100,110
-0.390553,0.407463,1.515336,103,102,104
-0.383093,0.407463,1.515336,107,107,112
-0.375632,0.407463,1.515336,109,107,109
-0.368716,0.408066,1.517577,101,105,112
-0.360978,0.407764,1.516456,103,103,101
-0.353512,0.407764,1.516456,82,82,81
-0.346046,0.407764,1.516456,98,96,84
-0.338330,0.407463,1.515336,103,100,96
-0.331114,0.407764,1.516456,95,100,100
-0.323409,0.407463,1.515336,103,103,107
-0.316182,0.407764,1.516456,100,99,108
-0.308261,0.407163,1.514217,102,99,99
-0.300584,0.406862,1.513101,99,102,100
-0.292919,0.406562,1.511986,103,105,109
-0.285264,0.406263,1.510872,104,101,106
-0.277417,0.405666,1.508650,106,101,95
-0.269990,0.405666,1.508650,109,100,96
-0.262949,0.406263,1.510872,100,106,110
-0.255511,0.406263,1.510872,104,101,111
-0.248438,0.406862,1.513101,107,104,99
-0.240811,0.406562,1.511986,109,101,104
-0.233367,0.406562,1.511986,101,105,105
-0.226424,0.407463,1.515336,106,104,104
-0.219450,0.408368,1.518701,110,103,108
-0.212130,0.408671,1.519826,104,103,111
-0.204799,0.408973,1.520952,104,103,109
-0.197604,0.409581,1.523211,103,106,102
-0.190387,0.410190,1.525476,110,104,112
-0.183149,0.410801,1.527747,102,101,109
-0.175628,0.410801,1.527747,107,107,111
-0.168608,0.412028,1.532311,111,109,106
-0.161305,0.412644,1.534603,113,105,109
-0.153865,0.412953,1.535752,107,104,105
-0.146414,0.413262,1.536902,105,101,106
-0.138226,0.411413,1.530026,115,105,113
-0.130304,0.410190,1.525476,103,101,107
-0.122068,0.407764,1.516456,104,104,107
-0.114096,0.405964,1.509760,107,106,114
-0.106585,0.405666,1.508650,110,105,108
-0.100040,0.409277,1.522081,113,108,110
-0.092341,0.408368,1.518701,113,106,114
-0.085624,0.412028,1.532311,108,108,108
-0.031309,0.204790,0.761605,51,63,61
-0.027236,0.202386,0.752665,68,60,57
-0.023530,0.202386,0.752665,58,60,59
-0.019810,0.202238,0.752113,63,56,49
-0.016037,0.201352,0.748819,54,53,51
-0.012296,0.200474,0.745554,48,48,48
-0.008595,0.199748,0.742855,55,41,42
-0.004920,0.199028,0.740175,42,38,38
-0.001272,0.198455,0.738045,39,39,34
0.002357,0.198028,0.736455,35,35,32
0.005965,0.197461,0.734347,41,36,36
0.009567,0.197178,0.733297,39,32,36
0.013140,0.196616,0.731206,37,37,34
0.016692,0.196057,0.729127,44,37,36
0.020239,0.195640,0.727576,40,36,31
0.023787,0.195363,0.726546,44,33,28
0.027325,0.195087,0.725518,43,38,40
0.030832,0.194674,0.723982,44,42,39
0.034372,0.194536,0.723471,43,44,36
0.037907,0.194399,0.722961,48,39,35
0.041408,0.194126,0.721944,47,46,41
0.044962,0.194126,0.721944,50,47,42
0.048483,0.193989,0.721436,52,45,43
0.051998,0.193853,0.720929,51,47,41
0.055508,0.193717,0.720423,54,44,43
0.059055,0.193717,0.720423,52,48,45
0.062646,0.193853,0.720929,55,46,41
0.066242,0.193989,0.721436,56,48,46
0.069794,0.193989,0.721436,55,52,51
0.073449,0.194262,0.722452,58,51,51
0.077060,0.194399,0.722961,56,52,50
0.080733,0.194674,0.723982,62,59,47
0.084416,0.194949,0.725005,77,66,59
0.088173,0.195363,0.726546,60,56,58
0.091880,0.195640,0.727576,102,105,101
0.095598,0.195918,0.728610,104,103,101
0.099396,0.196336,0.730165,91,87,80
0.103212,0.196757,0.731728,104,100,104
0.107120,0.197319,0.733821,114,111,108
0.111130,0.198028,0.736455,118,116,123
0.115086,0.198598,0.738576,135,127,128
0.119238,0.199460,0.741780,136,126,128
0.123425,0.200329,0.745013,122,126,119
0.127649,0.201205,0.748273,125,127,128
0.131717,0.201794,0.750463,147,144,141
0.136109,0.202833,0.754325,168,163,167
0.335750,0.451108,1.677649,80,78,72
0.345422,0.452960,1.684536,80,78,71
0.342741,0.438906,1.632271,82,72,71
0.348834,0.436476,1.623231,79,76,72
0.356262,0.435786,1.620667,69,70,62
0.365976,0.437861,1.628385,73,70,66
0.374885,0.438906,1.632271,71,68,67
0.383226,0.439256,1.633570,69,68,63
0.390336,0.438209,1.629678,67,70,59
0.397413,0.437167,1.625804,65,63,58
0.403181,0.434756,1.616836,71,61,51
0.410494,0.434072,1.614292,65,64,59
0.418771,0.434414,1.615563,65,60,50
0.427398,0.435099,1.618111,63,60,57
0.436052,0.435786,1.620667,61,58,50
0.443331,0.435099,1.618111,61,56,56
0.450232,0.434072,1.614292,59,55,49
0.457460,0.433390,1.611755,61,55,44
0.464301,0.432371,1.607966,60,53,56
0.471478,0.431694,1.605450,62,55,47
0.478260,0.430683,1.601690,52,53,52
0.484632,0.429343,1.596704,59,55,44
0.490965,0.428010,1.591749,54,50,48
0.496490,0.426027,1.584374,55,53,49
0.500810,0.423087,1.573439,56,50,50
0.504686,0.419867,1.561465,51,49,43
0.510819,0.418593,1.556726,51,46,41
0.518090,0.418275,1.555545,21,13,15
0.523367,0.416381,1.548502,10,9,6
0.527409,0.413572,1.538054,31,22,16
0.530211,0.409885,1.524342,48,29,26
0.532965,0.406263,1.510872,49,37,23
0.536453,0.403293,1.499828,51,34,26
0.538718,0.399497,1.485709,54,36,26
0.541717,0.396340,1.473969,59,38,29
0.544282,0.392952,1.461371,56,44,27
0.546032,0.389073,1.446943,64,44,25
0.545462,0.383661,1.426818,57,43,28
0.546783,0.379701,1.412089,60,44,30
0.548451,0.376077,1.398612,69,46,35
0.550087,0.372522,1.385391,58,43,31
0.552062,0.369281,1.373336,66,44,30
0.554002,0.366095,1.361489,61,47,31
0.557377,0.363922,1.353407,62,42,29
0.560711,0.361774,1.345419,52,40,31
0.562540,0.358716,1.334047,45,37,33
0.566529,0.357091,1.328003,80,82,77
0.571218,0.355939,1.323719,133,128,127
0.577735,0.355939,1.323719,146,147,145
0.583876,0.355709,1.322866,150,148,144
0.590008,0.355480,1.322013,150,154,147
0.596902,0.355709,1.322866,154,150,150
0.603414,0.355709,1.322866,150,153,151
0.609534,0.355480,1.322013,164,148,152
0.616043,0.355480,1.322013,156,150,153
0.622953,0.355709,1.322866,155,153,159
0.629466,0.355709,1.322866,159,150,151
0.635979,0.355709,1.322866,159,154,151
0.642077,0.355480,1.322013,154,160,155
0.649004,0.355709,1.322866,160,155,146
0.655940,0.355939,1.323719,159,157,155
0.662030,0.355709,1.322866,164,162,154
0.668543,0.355709,1.322866,159,159,165
0.675056,0.355709,1.322866,164,155,150
0.681129,0.355480,1.322013,155,155,162
0.687195,0.355251,1.321162,166,159,152
0.694147,0.355480,1.322013,155,158,149
0.700655,0.355480,1.322013,159,157,162
0.707164,0.355480,1.322013,159,161,154
0.713213,0.355251,1.321162,160,157,162
0.719254,0.355023,1.320312,164,157,172
0.725288,0.354794,1.319463,168,160,165
0.731784,0.354794,1.319463,157,165,161
0.737805,0.354566,1.318615,163,164,152
0.743342,0.354111,1.316922,158,161,162
0.748864,0.353657,1.315234,165,159,158
0.754856,0.353431,1.314391,172,158,162
0.760839,0.353204,1.313550,168,163,165
0.766325,0.352753,1.311870,158,164,158
0.772784,0.352753,1.311870,164,160,165
0.778247,0.352302,1.310194,166,166,161
0.783697,0.351853,1.308523,161,156,161
0.789132,0.351405,1.306856,176,172,158
0.795566,0.351405,1.306856,166,166,166
0.802000,0.351405,1.306856,170,164,168
0.808434,0.351405,1.306856,166,167,171
0.814869,0.351405,1.306856,167,171,172
0.820780,0.351181,1.306025,169,170,169
0.827210,0.351181,1.306025,172,172,171
0.834171,0.351405,1.306856,163,166,163
0.841140,0.351629,1.307689,167,168,179
0.847578,0.351629,1.307689,171,170,170
0.853473,0.351405,1.306856,170,166,171
0.859359,0.351181,1.306025,175,166,164
0.865238,0.350958,1.305194,164,164,171
-1.436036,0.417390,1.524342,118,127,127
-1.424299,0.416153,1.519826,121,125,116
-1.413675,0.415230,1.516456,120,121,126
-1.402064,0.414006,1.511986,119,123,131
-1.390521,0.412790,1.507542,117,121,121
-1.376022,0.410677,1.499828,113,118,115
-1.365643,0.409779,1.496546,112,118,122
-1.352357,0.407993,1.490025,112,117,118
-1.342097,0.407106,1.486786,115,114,118
-1.330919,0.405930,1.482489,109,113,115
-1.320758,0.405052,1.479282,118,113,111
-1.308757,0.403597,1.473969,109,117,109
-1.298701,0.402729,1.470799,109,114,109
-1.287767,0.401577,1.466594,109,115,116
-1.272361,0.399010,1.457219,99,112,115
-1.263393,0.398444,1.455152,99,112,112
-1.254449,0.397880,1.453091,107,114,108
-1.245531,0.397317,1.451036,103,108,110
-1.234023,0.395917,1.445923,108,105,110
-1.224316,0.395082,1.442872,105,107,112
-1.212098,0.393422,1.436810,106,103,105
-1.200820,0.392049,1.431797,102,108,100
-1.187968,0.390144,1.424837,109,108,102
-1.176867,0.388794,1.419906,101,105,104
-1.164236,0.386919,1.413061,99,104,102
-1.154100,0.385856,1.409179,98,103,98
-1.145588,0.385327,1.407246,89,95,94
-1.137100,0.384799,1.405318,78,80,84
-1.129408,0.384536,1.404356,78,86,88
-1.121726,0.384273,1.403396,83,85,90
-1.115580,0.384536,1.404356,86,82,83
-1.110186,0.385063,1.406281,78,85,85
-1.104019,0.385327,1.407246,83,81,84
-1.095588,0.384799,1.405318,81,87,93
-1.087924,0.384536,1.404356,78,80,82
-1.081750,0.384799,1.405318,86,79,85
-1.076306,0.385327,1.407246,79,83,88
-1.069378,0.385327,1.407246,81,85,88
-1.063909,0.385856,1.409179,78,80,82
-1.057697,0.386121,1.410147,79,83,83
-1.052201,0.386653,1.412089,80,82,90
-1.045969,0.386919,1.413061,80,87,81
-1.039012,0.386919,1.413061,84,84,77
-1.032055,0.386919,1.413061,88,86,84
-1.025805,0.387186,1.414035,83,82,91
-1.018843,0.387186,1.414035,85,86,86
-1.011881,0.387186,1.414035,83,86,85
-1.004228,0.386919,1.413061,80,85,87
-0.997271,0.386919,1.413061,81,86,86
-0.990314,0.386919,1.413061,83,85,90
-0.983357,0.386919,1.413061,84,82,91
-0.977073,0.387186,1.414035,82,79,88
-0.970111,0.387186,1.414035,80,85,89
-0.963814,0.387453,1.415010,86,86,81
-0.957508,0.387720,1.415987,82,81,83
-0.951193,0.387988,1.416964,80,85,84
-0.944869,0.388256,1.417944,79,84,82
-0.937888,0.388256,1.417944,79,83,86
-0.932841,0.389063,1.420889,89,79,91
-0.927130,0.389602,1.422860,80,81,85
-0.921403,0.390144,1.424837,82,86,87
-0.915023,0.390415,1.425827,86,84,87
-0.909267,0.390958,1.427811,85,82,91
-0.903495,0.391503,1.429801,83,85,94
-0.897707,0.392049,1.431797,82,86,95
-0.891280,0.392323,1.432796,81,86,86
-0.884226,0.392323,1.432796,83,83,79
-0.879013,0.393147,1.435804,87,86,83
-0.872555,0.393422,1.436810,82,85,82
-0.866088,0.393698,1.437817,87,84,88
-0.859611,0.393974,1.438825,87,86,92
-0.853126,0.394250,1.439835,78,86,80
-0.846037,0.394250,1.439835,82,84,82
-0.838949,0.394250,1.439835,78,82,91
-0.831860,0.394250,1.439835,77,80,80
-0.824771,0.394250,1.439835,75,77,77
-0.817683,0.394250,1.439835,71,72,84
-0.811163,0.394527,1.440846,75,75,74
-0.804634,0.394804,1.441858,71,72,74
-0.797536,0.394804,1.441858,72,71,68
-0.791550,0.395360,1.443888,71,67,72
-0.784441,0.395360,1.443888,77,72,77
-0.777332,0.395360,1.443888,77,79,77
-0.770766,0.395638,1.444905,79,81,76
-0.763652,0.395638,1.444905,79,81,81
-0.756539,0.395638,1.444905,76,73,68
-0.750482,0.396197,1.446943,37,39,39
-0.744408,0.396756,1.448986,37,37,42
-0.738317,0.397317,1.451036,83,82,71
-0.732209,0.397880,1.453091,81,88,87
-0.726084,0.398444,1.455152,88,85,94
-0.719430,0.398727,1.456185,94,86,87
-0.712766,0.399010,1.457219,87,89,89
-0.706596,0.399578,1.459292,89,87,89
-0.698914,0.399294,1.458255,86,86,91
-0.692227,0.399578,1.459292,90,89,88
-0.685530,0.399862,1.460331,84,89,92
-0.679307,0.400432,1.462412,91,86,93
-0.673548,0.401290,1.465546,91,93,96
-0.665857,0.401004,1.464500,89,90,90
-0.659588,0.401577,1.466594,87,92,95
-0.651902,0.401290,1.465546,89,92,96
-0.646534,0.402440,1.469745,91,94,93
-0.640674,0.403307,1.472911,94,92,91
-0.633878,0.403597,1.473969,87,92,97
-0.627523,0.404177,1.476090,95,94,97
-0.620702,0.404468,1.477152,93,93,97
-0.613430,0.404468,1.477152,94,91,101
-0.606157,0.404468,1.477152,92,91,100
-0.599316,0.404760,1.478217,96,91,96
-0.592466,0.405052,1.479282,96,93,100
-0.586451,0.405930,1.482489,92,95,101
-0.579571,0.406223,1.483561,96,94,100
-0.572681,0.406517,1.484634,93,97,96
-0.564555,0.405930,1.482489,97,96,103
-0.557659,0.406223,1.483561,97,94,96
-0.551152,0.406811,1.485709,99,97,101
-0.545022,0.407697,1.488944,93,96,103
-0.537691,0.407697,1.488944,101,97,99
-0.530361,0.407697,1.488944,97,96,101
-0.523410,0.407993,1.490025,104,100,104
-0.515326,0.407401,1.487864,95,99,99
-0.509108,0.408290,1.491108,91,99,99
-0.502132,0.408587,1.492192,100,101,108
-0.495506,0.409182,1.494366,100,99,101
-0.488505,0.409480,1.495455,97,97,103
-0.481845,0.410078,1.497638,105,97,96
-0.474818,0.410377,1.498732,105,97,103
-0.467781,0.410677,1.499828,103,99,104
-0.461409,0.411580,1.503124,97,104,100
-0.454008,0.411580,1.503124,100,100,101
-0.446935,0.411882,1.504226,103,97,94
-0.439530,0.411882,1.504226,100,99,106
-0.432441,0.412184,1.505330,102,101,97
-0.425030,0.412184,1.505330,103,103,101
-0.418540,0.413093,1.508650,105,99,106
-0.411415,0.413397,1.509760,103,104,107
-0.404280,0.413702,1.510872,95,102,102
-0.397426,0.414312,1.513101,99,100,114
-0.390842,0.415230,1.516456,101,100,103
-0.383093,0.414924,1.515336,105,101,104
-0.375910,0.415230,1.516456,107,103,110
-0.368716,0.415537,1.517577,106,100,107
-0.360978,0.415230,1.516456,113,105,106
-0.353251,0.414924,1.515336,83,85,85
-0.346046,0.415230,1.516456,91,94,90
-0.338080,0.414617,1.514217,104,101,104
-0.330870,0.414924,1.515336,103,96,100
-0.323648,0.415230,1.516456,99,98,100
-0.316182,0.415230,1.516456,105,97,98
-0.308261,0.414617,1.514217,104,99,107
-0.300584,0.414312,1.513101,102,98,97
-0.292703,0.413702,1.510872,96,97,107
-0.285475,0.414006,1.511986,102,101,109
-0.277214,0.412790,1.507542,106,96,105
-0.269990,0.413093,1.508650,106,108,107
-0.262756,0.413397,1.509760,109,104,104
-0.255135,0.413093,1.508650,108,100,106
-0.247890,0.413397,1.509760,105,101,106
-0.240103,0.412790,1.507542,102,100,110
-0.232852,0.413093,1.508650,105,105,100
-0.226090,0.414312,1.513101,105,102,104
-0.219125,0.415230,1.516456,117,100,102
-0.211973,0.415845,1.518701,110,103,108
-0.204647,0.416153,1.519826,110,102,107
-0.197750,0.417390,1.524342,112,100,103
-0.190529,0.418011,1.526610,102,102,97
-0.183286,0.418634,1.528886,106,105,104
-0.175758,0.418634,1.528886,99,99,108
-0.168734,0.419885,1.533456,103,103,106
-0.161426,0.420514,1.535752,106,108,113
-0.153865,0.420514,1.535752,105,106,106
-0.146304,0.420514,1.535752,106,104,109
-0.138123,0.418634,1.528886,99,105,111
-0.130208,0.417390,1.524342,103,104,100
-0.121978,0.414924,1.515336,107,103,107
-0.114096,0.413397,1.509760,106,100,105
-0.106820,0.414006,1.511986,111,100,107
-0.099892,0.416153,1.519826,105,102,106
-0.091932,0.414006,1.511986,112,107,105
-0.085624,0.419572,1.532311,105,100,112
-0.031263,0.208231,0.760476,63,59,57
-0.027176,0.205639,0.751012,58,59,58
-0.023462,0.205489,0.750463,62,59,56
-0.019781,0.205639,0.751012,57,58,55
-0.016037,0.205039,0.748819,54,51,45
-0.012296,0.204145,0.745554,52,47,45
-0.008588,0.203259,0.742317,46,40,40
-0.004920,0.202672,0.740175,36,37,40
-0.001272,0.202089,0.738045,33,35,38
0.002355,0.201509,0.735927,38,36,33
0.005970,0.201220,0.734873,35,32,33
0.009560,0.200645,0.732773,40,37,32
0.013140,0.200216,0.731206,41,38,36
0.016704,0.199789,0.729646,40,37,33
0.020253,0.199364,0.728092,37,36,29
0.023804,0.199081,0.727060,38,35,32
0.027325,0.198659,0.725518,43,42,35
0.030854,0.198378,0.724493,43,38,41
0.034372,0.198098,0.723471,46,42,42
0.037907,0.197959,0.722961,46,41,39
0.041437,0.197819,0.722452,52,49,41
0.044962,0.197680,0.721944,50,49,44
0.048483,0.197541,0.721436,49,43,42
0.051998,0.197402,0.720929,52,41,37
0.055547,0.197402,0.720929,48,49,44
0.059096,0.197402,0.720929,49,42,40
0.062646,0.197402,0.720929,53,49,44
0.066242,0.197541,0.721436,51,48,48
0.069843,0.197680,0.721944,55,49,48
0.073449,0.197819,0.722452,57,49,46
0.077114,0.198098,0.723471,55,50,52
0.080790,0.198378,0.724493,55,57,56
0.084476,0.198659,0.725518,63,62,58
0.088110,0.198799,0.726031,63,60,54
0.091815,0.199081,0.727060,77,74,78
0.095530,0.199364,0.728092,86,76,78
0.099396,0.199931,0.730165,106,99,93
0.103212,0.200359,0.731728,115,113,107
0.107196,0.201076,0.734347,118,109,107
0.111050,0.201509,0.735927,131,116,116
0.115086,0.202234,0.738576,129,122,116
0.119238,0.203112,0.741780,118,116,117
0.123425,0.203997,0.745013,127,120,124
0.127463,0.204591,0.747183,139,129,137
0.131814,0.205639,0.751012,157,159,169
0.136209,0.206699,0.754880,180,174,184
0.337683,0.462012,1.687306,84,77,78
0.345990,0.462012,1.687306,85,76,71
0.342741,0.446942,1.632271,76,74,65
0.348559,0.444116,1.621948,76,72,68
0.355700,0.443065,1.618111,72,73,64
0.365685,0.445525,1.627093,71,68,70
0.374587,0.446587,1.630973,72,71,60
0.382921,0.446942,1.632271,72,70,57
0.390336,0.446232,1.629678,74,64,59
0.397413,0.445172,1.625804,69,63,55
0.403499,0.443065,1.618111,66,64,63
0.411141,0.442716,1.616836,71,61,56
0.419101,0.442716,1.616836,64,61,58
0.427735,0.443415,1.619388,59,60,54
0.436742,0.444467,1.623231,61,57,53
0.443681,0.443415,1.619388,59,57,59
0.450232,0.442019,1.614292,62,62,57
0.457460,0.441325,1.611755,63,54,56
0.464665,0.440633,1.609227,57,59,57
0.472217,0.440287,1.607966,63,54,53
0.479007,0.439255,1.604194,57,53,47
0.485766,0.438227,1.600440,55,51,45
0.492110,0.436864,1.595462,57,53,51
0.497643,0.434835,1.588053,55,49,49
0.501965,0.431827,1.577067,55,51,42
0.505841,0.428533,1.565038,53,47,45
0.511595,0.426905,1.559092,52,45,41
0.518090,0.425934,1.555545,22,14,15
0.523763,0.424325,1.549671,13,10,7
0.528201,0.421777,1.540364,32,21,14
0.530211,0.417390,1.524342,48,32,15
0.533357,0.414006,1.511986,55,37,27
0.536061,0.410377,1.498732,50,35,20
0.538718,0.406811,1.485709,54,41,27
0.541328,0.403307,1.472911,57,38,26
0.543894,0.399862,1.460331,52,43,32
0.545647,0.395917,1.445923,71,41,27
0.546222,0.391230,1.428805,65,41,30
0.547914,0.387453,1.415010,58,43,22
0.549200,0.383486,1.400522,59,43,32
0.550831,0.379856,1.387265,58,43,28
0.552802,0.376546,1.375177,65,45,34
0.554370,0.373046,1.362393,63,42,29
0.557745,0.370829,1.354300,59,47,33
0.560344,0.368156,1.344538,57,36,30
0.562174,0.365047,1.333180,43,32,30
0.566162,0.363394,1.327144,80,80,74
0.571218,0.362456,1.323719,129,128,115
0.576991,0.361989,1.322013,146,148,152
0.583500,0.361989,1.322013,152,154,149
0.590389,0.362222,1.322866,158,152,147
0.596902,0.362222,1.322866,156,150,145
0.603414,0.362222,1.322866,154,152,146
0.609534,0.361989,1.322013,153,151,146
0.616043,0.361989,1.322013,157,147,152
0.622551,0.361989,1.322013,156,151,148
0.629060,0.361989,1.322013,164,148,156
0.635159,0.361756,1.321162,160,154,152
0.642491,0.362222,1.322866,157,155,152
0.649004,0.362222,1.322866,158,157,161
0.655095,0.361989,1.322013,158,156,156
0.661177,0.361756,1.321162,164,161,155
0.667682,0.361756,1.321162,174,158,161
0.674186,0.361756,1.321162,160,161,155
