x,y,z,r,g,b
0.820618,0.321487,1.316077,18,19,20
0.826038,0.321075,1.314391,19,20,20
0.830381,0.320254,1.311032,21,18,19
0.836301,0.320050,1.310194,18,18,16
0.841140,0.319438,1.307689,16,15,19
0.845961,0.318828,1.305194,20,18,18
0.850763,0.318221,1.302708,17,16,17
0.855005,0.317415,1.299407,22,17,19
0.858684,0.316413,1.295306,17,18,16
-1.771682,0.468652,1.880627,22,22,22
-1.767282,0.469944,1.885813,23,24,22
-1.759615,0.470377,1.887548,28,24,28
-1.751934,0.470810,1.889286,27,25,22
-1.742633,0.470810,1.889286,28,24,23
-1.728556,0.469513,1.884081,22,23,23
-1.719280,0.469513,1.884081,22,19,19
-1.706870,0.468652,1.880627,26,27,21
-1.692955,0.467367,1.875470,19,21,20
-1.685263,0.467795,1.877186,8,7,10
-1.685272,0.470377,1.887548,9,7,7
-1.680617,0.471679,1.892772,10,8,11
-1.668221,0.470810,1.889286,11,9,11
-1.652832,0.469082,1.882353,12,9,12
-1.639053,0.467795,1.877186,13,12,7
-1.629811,0.467795,1.877186,13,11,14
-1.620569,0.467795,1.877186,15,14,13
-1.609854,0.467367,1.875470,13,13,14
-1.597700,0.466514,1.872048,15,15,16
-1.589934,0.466940,1.873758,13,13,14
-1.576390,0.465665,1.868638,16,16,17
-1.558673,0.463134,1.858482,16,14,15
-1.534236,0.458565,1.840148,17,14,15
-1.510277,0.454085,1.822171,17,15,16
-1.486782,0.449692,1.804542,17,16,20
-1.465013,0.445771,1.788810,26,25,28
-1.442373,0.441537,1.771817,39,37,34
-1.420160,0.437382,1.755145,54,50,44
-1.400734,0.434040,1.741736,63,60,50
-1.371207,0.427508,1.715522,70,66,53
-1.344771,0.421864,1.692875,72,71,60
-1.322254,0.417387,1.674910,69,64,54
-1.304424,0.414343,1.662694,34,37,38
-1.291007,0.412671,1.655984,8,7,9
-1.277698,0.411013,1.649328,7,6,4
-1.271623,0.411674,1.651984,7,7,6
-1.268597,0.413338,1.658662,8,6,9
-1.265546,0.415016,1.665393,8,6,8
-1.264531,0.417387,1.674910,8,7,6
-1.262469,0.419442,1.683154,8,7,9
-1.262468,0.422213,1.694273,8,6,4
-1.262466,0.425020,1.705540,9,6,7
-1.263522,0.428224,1.718396,8,7,4
-1.265662,0.431841,1.732909,9,8,7
-1.262462,0.433672,1.740258,11,7,7
-1.259234,0.435519,1.747670,9,7,7
-1.254906,0.437008,1.753645,8,7,7
-1.252696,0.439261,1.762684,8,8,7
-1.248308,0.440776,1.768763,9,7,6
-1.246045,0.443067,1.777959,10,7,8
-1.243758,0.445383,1.787251,9,7,9
-1.240361,0.447331,1.795070,8,7,9
-1.236934,0.449297,1.802957,8,8,8
-1.232390,0.450881,1.809316,9,7,8
-1.226727,0.452077,1.814115,7,7,9
-1.222118,0.453682,1.820554,9,7,7
-1.217476,0.455298,1.827039,9,8,7
-1.212801,0.456925,1.833570,9,6,5
-1.211352,0.459802,1.845112,8,7,5
-1.205520,0.461046,1.850103,9,9,8
-1.201830,0.463134,1.858482,8,7,7
-1.198106,0.465241,1.866938,10,7,8
-1.192169,0.466514,1.872048,8,6,6
-1.187286,0.468223,1.878905,7,7,7
-1.184544,0.470810,1.889286,11,7,8
-1.182866,0.473864,1.901543,9,9,6
-1.180067,0.476514,1.912176,6,6,9
-1.176133,0.478745,1.921128,9,7,6
-1.173266,0.481450,1.931982,9,8,7
-1.171476,0.484644,1.944800,8,7,8
-1.167434,0.486952,1.954062,8,8,7
-1.162242,0.488814,1.961534,7,6,7
-1.358525,0.581022,2.331551,11,9,9
-1.350114,0.582346,2.336862,11,10,7
-1.347047,0.586017,2.351593,11,8,8
-1.344717,0.590075,2.367876,12,9,9
-1.344699,0.595227,2.388550,12,10,11
-1.343891,0.600117,2.408174,12,9,13
-1.332817,0.600469,2.409588,15,12,11
-1.327188,0.603303,2.420961,15,13,13
-1.316045,0.603660,2.422390,16,14,15
-1.307980,0.605447,2.429561,13,14,14
-1.296786,0.605805,2.431001,17,15,17
-1.287870,0.607244,2.436775,18,15,13
-1.267593,0.603303,2.420961,15,13,14
-1.025372,0.497373,1.995880,14,13,16
-1.012590,0.495926,1.990072,20,17,20
-0.997953,0.493532,1.980468,24,19,20
-0.982512,0.490691,1.969064,21,20,18
-0.969098,0.488814,1.961534,12,11,11
-0.955786,0.486952,1.954062,7,6,7
-0.943470,0.485565,1.948494,6,5,6
-0.930343,0.483727,1.941121,8,6,6
-0.919916,0.483270,1.939286,7,5,4
-0.908650,0.482358,1.935627,6,5,5
-0.897427,0.481450,1.931982,7,6,6
-0.886247,0.480545,1.928350,8,5,5
-0.876753,0.480545,1.928350,7,6,6
-0.866445,0.480094,1.926540,6,7,9
-0.854553,0.478745,1.921128,10,9,11
-0.840373,0.476070,1.910395,13,14,19
-0.825587,0.472988,1.898024,14,14,18
-0.948105,0.555760,2.230179,11,11,11
-0.948988,0.562795,2.258409,8,5,4
-0.922635,0.553654,2.221727,6,5,6
-0.899042,0.545969,2.190886,8,7,7
-0.871505,0.535673,2.149570,7,6,5
-0.849793,0.528748,2.121783,7,5,6
-0.833314,0.524948,2.106534,7,5,5
-0.820416,0.523336,2.100066,7,5,4
-0.806363,0.520937,2.090438,8,5,7
-0.791635,0.518034,2.078789,7,5,6
-0.776679,0.514904,2.066228,8,6,5
-0.759243,0.510025,2.046648,5,5,6
-0.747303,0.508756,2.041557,8,6,6
-0.736519,0.508250,2.039527,7,5,5
-0.726117,0.507998,2.038514,7,7,7
-0.716081,0.507998,2.038514,9,5,5
-0.705694,0.507745,2.037502,7,7,4
-0.694973,0.507242,2.035481,10,8,7
-0.685292,0.507493,2.036491,9,8,6
-0.676609,0.508503,2.040542,11,6,10
-0.669225,0.510534,2.048692,9,6,6
-0.661119,0.512068,2.054847,8,6,8
-0.653292,0.513869,2.062075,9,5,9
-0.645085,0.515423,2.068311,10,8,7
-0.637473,0.517510,2.076685,10,7,10
-0.629798,0.519613,2.085127,10,8,6
-0.623652,0.523069,2.098992,11,10,9
-0.616155,0.525488,2.108699,10,9,7
-0.608902,0.528202,2.119591,10,8,8
-0.601574,0.530945,2.130597,12,7,8
-0.594170,0.533716,2.141717,9,8,9
-0.587304,0.537079,2.155215,8,6,8
-0.579738,0.539915,2.166594,6,5,3
-0.573309,0.543936,2.182728,7,5,4
-0.566176,0.547430,2.196750,7,4,6
-0.558350,0.550376,2.208573,7,5,5
-0.551334,0.554254,2.224135,8,6,5
-0.543329,0.557275,2.236256,7,6,4
-0.534943,0.560022,2.247278,8,7,8
-0.527636,0.564037,2.263392,10,8,8
-0.525477,0.573849,2.302766,11,9,10
-0.522348,0.583010,2.339526,13,9,7
-0.516721,0.589734,2.366510,9,6,7
-0.507411,0.592468,2.377479,8,5,5
-0.497436,0.594534,2.385773,7,5,4
-0.488816,0.598361,2.401129,8,5,7
-0.480368,0.602592,2.418108,8,6,6
-0.470403,0.605088,2.428124,7,6,6
-0.459809,0.606884,2.435329,8,5,7
-0.449419,0.609052,2.444031,8,7,5
-0.439481,0.611968,2.455733,7,6,6
-0.428416,0.613437,2.461625,9,6,6
-0.415798,0.612702,2.458675,8,6,7
-0.399860,0.606884,2.435329,8,7,6
-0.385809,0.603660,2.422390,8,5,5
-0.374990,0.605447,2.429561,8,5,5
-0.363675,0.606524,2.433884,7,6,7
-0.351484,0.606164,2.432442,9,6,7
-0.343375,0.613069,2.460149,10,7,9
-0.338778,0.626977,2.515959,13,11,13
-0.329217,0.632405,2.537742,22,19,20
-0.312854,0.624679,2.506737,22,21,19
-0.299597,0.622777,2.499104,21,22,21
-0.284178,0.616024,2.472006,22,21,22
-0.269572,0.610507,2.449868,22,22,22
-0.259369,0.614912,2.467546,22,21,22
-0.238611,0.593499,2.381619,28,22,21
-0.070216,0.204848,0.822021,31,29,26
-0.064264,0.198949,0.798352,27,24,26
-0.060146,0.198332,0.795874,24,21,21
-0.055752,0.196654,0.789140,20,19,18
-0.051589,0.195600,0.784914,22,19,18
-0.047543,0.194855,0.781923,22,19,21
-0.043494,0.193968,0.778363,20,19,18
-0.039572,0.193527,0.776595,23,20,20
-0.035614,0.192798,0.773667,23,22,20
-0.031709,0.192218,0.771340,26,21,21
-0.027870,0.191929,0.770182,27,24,23
-0.024042,0.191642,0.769027,27,22,23
-0.020210,0.191212,0.767302,25,22,22
-0.016396,0.190783,0.765584,26,22,21
-0.012617,0.190641,0.765013,25,25,20
-0.008831,0.190216,0.763305,25,22,21
-0.005069,0.190074,0.762738,25,23,22
-0.001313,0.189933,0.762171,26,21,20
0.002437,0.189792,0.761605,25,20,20
0.006182,0.189651,0.761040,22,21,20
0.009922,0.189511,0.760476,21,18,20
0.013656,0.189370,0.759913,21,17,16
0.017384,0.189230,0.759350,20,17,19
0.021107,0.189090,0.758789,19,16,18
0.024824,0.188950,0.758228,17,14,13
0.028557,0.188950,0.758228,17,15,16
0.032290,0.188950,0.758228,15,14,14
0.036023,0.188950,0.758228,16,15,16
0.039727,0.188811,0.757668,17,13,16
0.043457,0.188811,0.757668,17,15,13
0.047118,0.188532,0.756550,17,16,15
0.050842,0.188532,0.756550,20,18,15
0.054487,0.188255,0.755436,19,18,15
0.058206,0.188255,0.755436,20,17,16
0.061880,0.188116,0.754880,20,19,16
0.065548,0.187978,0.754325,20,19,15
0.069211,0.187840,0.753771,22,18,16
0.072922,0.187840,0.753771,21,17,17
0.076576,0.187702,0.753218,21,19,16
0.080226,0.187564,0.752665,20,20,17
0.083931,0.187564,0.752665,25,20,20
0.087573,0.187427,0.752113,22,19,19
0.091209,0.187289,0.751562,22,19,19
0.094909,0.187289,0.751562,23,20,17
0.098537,0.187152,0.751012,23,20,19
0.102234,0.187152,0.751012,22,19,17
0.105932,0.187152,0.751012,21,18,15
0.109709,0.187289,0.751562,19,18,18
0.113410,0.187289,0.751562,21,18,16
0.117110,0.187289,0.751562,20,18,19
0.120898,0.187427,0.752113,23,18,20
0.124784,0.187702,0.753218,23,19,19
0.128682,0.187978,0.754325,19,18,17
0.132688,0.188393,0.755993,21,18,19
0.136511,0.188532,0.756550,18,17,15
0.140546,0.188950,0.758228,18,15,16
0.144493,0.189230,0.759350,15,15,15
0.148561,0.189651,0.761040,16,13,14
0.152761,0.190216,0.763305,16,13,14
0.156869,0.190641,0.765013,17,14,14
0.161237,0.191355,0.767876,13,12,12
0.165513,0.191929,0.770182,11,11,9
0.169943,0.192652,0.773084,10,8,7
0.174670,0.193674,0.777184,10,9,9
0.179585,0.194855,0.781923,13,9,11
0.184136,0.195600,0.784914,13,12,10
0.189743,0.197413,0.792187,13,12,12
0.447460,0.438507,1.759661,13,9,7
0.466935,0.448902,1.801373,12,8,7
0.479169,0.452077,1.814115,13,8,7
0.485099,0.449297,1.802957,13,7,7
0.487972,0.443836,1.781046,11,8,7
0.496740,0.443836,1.781046,11,8,6
0.506829,0.444995,1.785696,13,8,6
0.516069,0.445383,1.787251,11,6,5
0.525326,0.445771,1.788810,12,7,5
0.533203,0.444995,1.785696,11,7,3
0.542467,0.445383,1.787251,10,7,2
0.551266,0.445383,1.787251,10,7,6
0.559578,0.444995,1.785696,9,7,5
0.567382,0.444222,1.782593,11,7,6
0.574162,0.442684,1.776420,10,6,6
0.577905,0.438884,1.761171,11,6,4
0.584069,0.437008,1.753645,9,6,6
0.555737,0.403870,1.620667,8,7,7
0.558860,0.400391,1.606707,5,4,5
0.563681,0.398208,1.597947,7,4,3
0.568889,0.396356,1.590515,7,4,5
0.573608,0.394217,1.581931,9,6,7
0.577389,0.391500,1.571029,8,7,9
0.581561,0.389117,1.561465,10,8,8
0.585683,0.386762,1.552016,12,10,10
0.588870,0.383859,1.540364,9,9,10
0.593779,0.382137,1.533456,9,8,9
0.598199,0.380148,1.525476,8,7,10
0.602573,0.378180,1.517577,9,6,5
0.607349,0.376509,1.510872,9,5,7
0.611635,0.374578,1.503124,8,6,5
0.616776,0.373211,1.497638,7,6,7
0.620976,0.371314,1.490025,7,5,3
0.625134,0.369436,1.482489,8,5,3
0.630610,0.368371,1.478217,4,5,5
0.635598,0.367049,1.472911,5,5,6
0.640093,0.365475,1.466594,6,3,5
0.645008,0.364173,1.461371,7,5,6
0.650350,0.363139,1.457219,7,4,5
0.656126,0.362367,1.454121,7,4,3
0.660943,0.361087,1.448986,5,4,3
0.666665,0.360324,1.445923,6,4,3
0.673309,0.360070,1.444905,6,4,3
0.679944,0.359817,1.443888,6,4,6
0.687052,0.359817,1.443888,6,4,4
0.693673,0.359564,1.442872,6,4,4
0.699301,0.358807,1.439835,7,3,3
0.705400,0.358304,1.437817,7,5,4
0.711980,0.358053,1.436810,7,3,4
0.721073,0.359059,1.440846,6,3,5
0.729191,0.359564,1.442872,5,3,5
0.736295,0.359564,1.442872,5,4,4
0.743398,0.359564,1.442872,5,5,5
0.751030,0.359817,1.443888,5,4,4
0.757606,0.359564,1.442872,5,3,5
0.764709,0.359564,1.442872,6,4,5
0.771271,0.359311,1.441858,6,5,4
0.778369,0.359311,1.441858,6,4,4
0.784916,0.359059,1.440846,7,4,6
0.793682,0.359817,1.443888,10,8,9
0.802485,0.360578,1.446943,24,20,19
0.810180,0.360832,1.447964,23,20,20
0.809879,0.357552,1.434800,21,21,18
0.790411,0.345940,1.388203,11,11,13
0.787653,0.341778,1.371500,13,14,12
0.787040,0.338609,1.358784,17,17,21
0.789027,0.336603,1.350734,19,22,19
0.793067,0.335498,1.346302,21,20,20
0.797602,0.334620,1.342778,24,24,24
0.800545,0.333094,1.336654,23,27,26
0.803983,0.331797,1.331450,25,25,26
0.807395,0.330510,1.326286,27,25,26
0.811302,0.329446,1.322013,24,25,25
0.815184,0.328388,1.317768,25,22,21
0.820092,0.327756,1.315234,21,17,22
0.826038,0.327546,1.314391,21,19,20
0.829851,0.326500,1.310194,20,18,19
0.835768,0.326292,1.309358,19,18,20
0.841140,0.325876,1.307689,17,16,17
0.845961,0.325254,1.305194,18,17,18
0.850763,0.324635,1.302708,18,16,17
0.855005,0.323812,1.299407,17,17,19
0.858142,0.322586,1.294489,18,19,18
-1.752407,0.472712,1.860167,13,13,18
-1.746415,0.473570,1.863546,14,13,15
-1.740402,0.474432,1.866938,11,14,18
-1.735949,0.475731,1.872048,15,13,14
-1.728310,0.476165,1.873758,13,13,18
-1.717516,0.475731,1.872048,19,16,16
-1.706742,0.475297,1.870342,25,21,17
-1.697534,0.475297,1.870342,24,21,21
-1.686788,0.474864,1.868638,23,18,19
-1.680650,0.475731,1.872048,9,10,12
-1.676021,0.477037,1.877186,8,6,9
-1.668305,0.477473,1.878905,7,6,9
-1.654509,0.476165,1.873758,7,6,8
-1.642285,0.475297,1.870342,6,7,10
-1.628623,0.474001,1.865241,8,8,6
-1.617969,0.473570,1.863546,8,7,10
-1.607334,0.473141,1.861855,10,7,10
-1.592388,0.471429,1.855122,9,8,8
-1.574712,0.468886,1.845112,10,9,13
-1.562817,0.468044,1.841799,11,9,12
-1.545425,0.465537,1.831933,14,14,18
-1.526863,0.462645,1.820554,20,19,22
-1.500591,0.457369,1.799793,29,26,29
-1.477474,0.452998,1.782593,44,41,35
-1.454794,0.448710,1.765718,53,52,43
-1.433762,0.444881,1.750652,66,61,53
-1.414283,0.441491,1.737311,67,65,54
-1.393927,0.437784,1.722724,73,69,59
-1.377350,0.435226,1.712658,77,70,60
-1.350876,0.429490,1.690086,77,71,66
-1.330500,0.425633,1.674910,74,73,61
-1.313675,0.422872,1.664043,55,56,49
-1.299160,0.420824,1.655984,12,13,19
-1.288927,0.420146,1.653315,8,6,7
-1.277698,0.419133,1.649328,8,6,8
-1.272647,0.420146,1.653315,8,6,7
-1.271681,0.422529,1.662694,8,6,9
-1.267604,0.423903,1.668101,9,7,6
-1.268674,0.427028,1.680397,8,5,7
-1.266625,0.429137,1.688695,7,6,7
-1.265603,0.431623,1.698481,7,5,8
-1.266678,0.434863,1.711230,7,6,9
-1.266705,0.437784,1.722724,6,7,7
-1.266732,0.440745,1.734374,10,7,9
-1.264607,0.442991,1.743215,7,7,9
-1.260308,0.444502,1.749160,8,6,7
-1.257055,0.446405,1.756648,10,6,8
-1.254852,0.448710,1.765718,9,7,8
-1.250464,0.450260,1.771817,8,7,8
-1.246045,0.451821,1.777959,9,8,8
-1.243758,0.454182,1.787251,9,6,5
-1.240361,0.456169,1.795070,10,7,7
-1.236934,0.458173,1.802957,8,7,9
-1.232390,0.459789,1.809316,8,7,8
-1.227813,0.461417,1.815721,10,8,10
-1.222118,0.462645,1.820554,8,7,7
-1.217476,0.464293,1.827039,8,7,7
-1.212801,0.465953,1.833570,8,7,7
-1.209177,0.468044,1.841799,8,6,9
-1.205520,0.470154,1.850103,8,6,7
-1.199656,0.471429,1.855122,8,6,9
-1.195930,0.473570,1.863546,7,6,8
-1.191082,0.475297,1.870342,8,6,7
-1.187286,0.477473,1.878905,8,7,7
-1.182366,0.479229,1.885813,9,7,7
-1.181771,0.482779,1.899782,8,7,8
-1.178968,0.485476,1.910395,8,6,8
-1.175033,0.487746,1.919331,10,8,9
-1.172163,0.490500,1.930164,9,7,9
-1.170367,0.493751,1.942959,8,7,7
-1.166324,0.496100,1.952202,9,8,6
-1.163354,0.498948,1.963411,8,6,8
-1.350849,0.589154,2.318378,11,10,6
-1.347812,0.592838,2.332876,11,9,8
-1.343967,0.596228,2.346214,11,9,7
-1.342394,0.600692,2.363784,10,11,10
-1.340796,0.605225,2.381619,12,9,9
-1.337611,0.609113,2.396921,14,10,8
-1.328137,0.610183,2.401129,13,12,10
-1.323285,0.613413,2.413841,14,12,12
-1.311401,0.613413,2.413841,15,13,10
-1.301814,0.614497,2.418108,16,15,14
-1.290669,0.614860,2.419534,15,16,15
-1.279512,0.615222,2.420961,16,15,16
-1.257945,0.610540,2.402534,16,14,13
-1.026370,0.507693,1.997823,9,7,9
-1.016534,0.507693,1.997823,8,8,9
-0.999883,0.504256,1.984298,11,9,10
-0.984402,0.501347,1.972851,13,11,12
-0.969098,0.498471,1.961534,10,8,10
-0.955786,0.496572,1.954062,8,6,6
-0.942575,0.494688,1.946646,8,6,4
-0.931224,0.493751,1.942959,6,5,5
-0.919916,0.492818,1.939286,8,5,5
-0.907794,0.491424,1.933803,8,5,5
-0.896583,0.490500,1.930164,7,5,7
-0.886247,0.490039,1.928350,7,6,7
-0.875930,0.489578,1.926540,8,6,5
-0.865632,0.489119,1.924732,8,6,6
-0.853753,0.487746,1.919331,9,7,9
-0.840373,0.485476,1.910395,14,13,17
-0.830195,0.485024,1.908618,12,14,20
-0.823095,0.486382,1.913960,18,16,17
-0.942761,0.570149,2.243592,8,7,9
-0.916680,0.560948,2.207385,11,8,7
-0.896648,0.555273,2.185053,6,4,6
-0.871961,0.546542,2.150697,6,5,2
-0.848915,0.538637,2.119591,8,4,7
-0.831607,0.534222,2.102218,6,5,4
-0.817488,0.531771,2.092570,7,5,4
-0.801058,0.527734,2.076685,7,6,5
-0.786852,0.525077,2.066228,8,5,5
-0.772788,0.522446,2.055876,7,6,7
-0.757354,0.518807,2.041557,8,5,4
-0.745449,0.517520,2.036491,7,6,6
-0.734329,0.516750,2.033463,6,5,6
-0.723959,0.516494,2.032456,8,5,6
-0.714307,0.516750,2.033463,6,4,6
-0.703598,0.516239,2.031450,10,6,6
-0.693254,0.515983,2.030445,8,5,6
-0.683934,0.516494,2.032456,9,7,8
-0.675601,0.517777,2.037502,10,9,8
-0.667558,0.519324,2.043590,13,10,9
-0.659468,0.520880,2.049715,10,8,8
-0.651328,0.522446,2.055876,10,8,9
-0.643463,0.524285,2.063112,12,10,10
-0.635543,0.526136,2.070398,12,10,11
-0.628202,0.528536,2.079842,13,10,11
-0.621744,0.531771,2.092570,14,10,8
-0.614261,0.534222,2.102218,10,8,10
-0.606708,0.536697,2.111955,8,8,9
-0.599396,0.539473,2.122881,12,8,8
-0.592007,0.542279,2.133920,9,8,7
-0.585152,0.545684,2.147320,8,5,6
-0.577603,0.548554,2.158616,7,5,7
-0.571485,0.552917,2.175784,7,5,5
-0.564364,0.556458,2.189717,8,6,6
-0.557151,0.560044,2.203829,7,5,6
-0.550439,0.564287,2.220524,8,5,5
-0.542442,0.567357,2.232606,11,7,8
-0.534066,0.570149,2.243592,9,6,7
-0.527636,0.575180,2.263392,9,8,8
-0.524594,0.584203,2.298896,10,8,7
-0.520271,0.592165,2.330227,8,6,5
-0.512583,0.596569,2.347557,7,6,5
-0.503908,0.600001,2.361064,8,5,4
-0.495133,0.603473,2.374727,4,5,4
-0.486538,0.607340,2.389941,6,5,6
-0.478394,0.611973,2.408174,6,5,4
-0.468739,0.614860,2.419534,6,5,4
-0.458448,0.617043,2.428124,7,5,7
-0.447288,0.618140,2.432442,8,5,3
-0.436866,0.620346,2.441124,7,5,5
-0.425861,0.621826,2.446946,7,5,7
-0.413568,0.621455,2.445488,8,7,4
-0.398677,0.617043,2.428124,8,5,6
-0.385809,0.615586,2.422390,8,5,5
-0.375212,0.617774,2.431001,7,4,7
-0.363891,0.618874,2.435329,6,6,6
-0.352110,0.619241,2.436775,8,7,6
-0.343169,0.624806,2.458675,8,7,7
-0.336714,0.635467,2.500627,12,11,13
-0.328202,0.642911,2.529919,21,21,21
-0.312091,0.635467,2.500627,23,20,20
-0.298869,0.633537,2.493031,21,21,22
-0.284865,0.629711,2.477977,22,22,21
-0.269572,0.622568,2.449868,22,22,22
-0.259994,0.628573,2.473495,24,21,21
-0.241982,0.613774,2.415261,24,22,20
-0.070499,0.209735,0.825328,31,29,27
-0.064464,0.203513,0.800845,26,24,25
-0.060286,0.202722,0.797731,23,20,19
-0.055795,0.200693,0.789748,22,19,20
-0.051668,0.199771,0.786117,21,19,16
-0.047579,0.198856,0.782519,19,19,19
-0.043560,0.198101,0.779546,22,19,18
-0.039602,0.197500,0.777184,21,20,19
-0.035614,0.196607,0.773667,23,21,19
-0.031733,0.196163,0.771920,26,22,19
-0.027891,0.195868,0.770761,29,24,22
-0.024042,0.195428,0.769027,28,22,20
-0.020225,0.195135,0.767876,25,23,21
-0.016408,0.194698,0.766156,28,22,20
-0.012617,0.194408,0.765013,26,23,21
-0.008838,0.194118,0.763874,26,22,22
-0.005073,0.193974,0.763305,25,21,22
-0.001313,0.193685,0.762171,25,21,21
0.002439,0.193685,0.762171,25,21,20
0.006182,0.193398,0.761040,24,21,20
0.009922,0.193255,0.760476,21,19,20
0.013656,0.193111,0.759913,19,16,19
0.017384,0.192969,0.759350,20,17,19
0.021107,0.192826,0.758789,20,16,15
0.024824,0.192683,0.758228,17,14,14
0.028557,0.192683,0.758228,17,15,14
0.032290,0.192683,0.758228,17,15,13
0.036023,0.192683,0.758228,16,14,14
0.039727,0.192541,0.757668,17,14,14
0.043457,0.192541,0.757668,17,15,14
0.047118,0.192257,0.756550,16,16,14
0.050842,0.192257,0.756550,20,15,16
0.054487,0.191974,0.755436,20,17,15
0.058206,0.191974,0.755436,19,16,18
0.061880,0.191833,0.754880,18,16,17
0.065548,0.191692,0.754325,18,16,17
0.069262,0.191692,0.754325,18,18,18
0.072868,0.191410,0.753218,22,18,19
0.076576,0.191410,0.753218,22,19,17
0.080226,0.191270,0.752665,22,20,19
0.083931,0.191270,0.752665,22,21,18
0.087573,0.191129,0.752113,20,19,19
0.091209,0.190989,0.751562,23,21,18
0.094839,0.190850,0.751012,22,20,19
0.098537,0.190850,0.751012,24,19,19
0.102234,0.190850,0.751012,24,18,20
0.105932,0.190850,0.751012,22,18,18
0.109709,0.190989,0.751562,21,19,19
0.113410,0.190989,0.751562,19,19,18
0.117110,0.190989,0.751562,21,18,19
0.120898,0.191129,0.752113,23,19,17
0.124784,0.191410,0.753218,21,19,16
0.128682,0.191692,0.754325,22,18,17
0.132590,0.191974,0.755436,20,18,17
0.136511,0.192257,0.756550,19,18,16
0.140442,0.192541,0.757668,19,16,16
0.144600,0.193111,0.759913,19,14,15
0.148671,0.193542,0.761605,17,14,13
0.152648,0.193829,0.762738,15,14,15
0.156986,0.194553,0.765584,16,11,12
0.161237,0.195135,0.767876,14,12,14
0.165389,0.195574,0.769604,14,12,11
0.169815,0.196311,0.772502,12,10,10
0.174538,0.197351,0.776595,12,10,11
0.179448,0.198553,0.781327,10,10,10
0.183996,0.199312,0.784314,14,12,13
0.189450,0.201003,0.790966,16,15,14
0.451721,0.451429,1.776420,15,10,6
0.469408,0.460195,1.810913,12,8,6
0.479594,0.461417,1.815721,14,8,4
0.485525,0.458576,1.804542,12,8,5
0.487972,0.452605,1.781046,12,8,6
0.497172,0.452998,1.782593,13,8,5
0.507713,0.454578,1.788810,10,7,6
0.516519,0.454578,1.788810,12,7,6
0.524869,0.454182,1.787251,10,7,3
0.533203,0.453787,1.785696,9,7,5
0.542467,0.454182,1.787251,12,6,3
0.550786,0.453787,1.785696,11,7,4
0.559091,0.453392,1.784143,8,5,3
0.566397,0.452212,1.779501,10,6,4
0.573170,0.450649,1.773349,9,6,6
0.578401,0.447939,1.762684,8,6,6
0.584568,0.446023,1.755145,8,6,4
0.554423,0.410875,1.616836,19,17,15
0.557986,0.407663,1.604194,13,13,11
0.562804,0.405444,1.595462,9,9,9
0.568449,0.403874,1.589283,8,6,4
0.573166,0.401696,1.580712,9,8,9
0.576947,0.398930,1.569828,5,7,7
0.581119,0.396503,1.560277,8,6,5
0.585240,0.394105,1.550842,8,7,5
0.588870,0.391442,1.540364,9,9,9
0.593335,0.389396,1.532311,10,9,8
0.598199,0.387659,1.525476,8,8,6
0.602573,0.385652,1.517577,8,6,6
0.607349,0.383948,1.510872,7,7,5
0.611635,0.381979,1.503124,8,6,6
0.616326,0.380307,1.496546,8,5,6
0.620976,0.378650,1.490025,7,5,6
0.625134,0.376735,1.482489,7,5,6
0.630610,0.375649,1.478217,5,5,3
0.635142,0.374032,1.471854,7,5,4
0.640551,0.372962,1.467643,7,4,5
0.645468,0.371633,1.462412,5,5,4
0.650812,0.370576,1.458255,5,4,5
0.656126,0.369526,1.454121,7,4,6
0.660943,0.368221,1.448986,6,4,4
0.667135,0.367702,1.446943,5,4,3
0.673309,0.367184,1.444905,7,4,6
0.679944,0.366925,1.443888,5,4,3
0.687536,0.367184,1.444905,6,4,5
0.694650,0.367184,1.444905,5,4,3
0.701270,0.366925,1.443888,5,4,3
0.706886,0.366152,1.440846,5,4,4
0.713479,0.365895,1.439835,6,3,6
0.721073,0.366152,1.440846,6,4,3
0.729191,0.366667,1.442872,4,4,5
0.736295,0.366667,1.442872,6,4,3
0.743398,0.366667,1.442872,5,3,4
0.751030,0.366925,1.443888,5,4,3
0.757073,0.366410,1.441858,5,3,2
0.763635,0.366152,1.440846,6,4,4
0.770729,0.366152,1.440846,5,5,3
0.776732,0.365639,1.438825,4,4,3
0.783266,0.365383,1.437817,5,3,3
0.790899,0.365639,1.438825,8,8,6
0.799665,0.366410,1.441858,17,16,14
0.806764,0.366410,1.441858,18,17,15
0.807057,0.363346,1.429801,15,14,17
0.789343,0.352298,1.386327,12,10,12
0.787127,0.348297,1.370584,14,14,15
0.787040,0.345299,1.358784,14,15,16
0.788508,0.343027,1.349845,19,19,18
0.793067,0.342127,1.346302,23,20,20
0.797080,0.341008,1.341900,20,23,23
0.800024,0.339454,1.335784,23,24,22
0.803462,0.338133,1.330587,23,24,25
0.806873,0.336822,1.325429,23,24,23
0.811302,0.335954,1.322013,27,24,20
0.815184,0.334875,1.317768,23,23,22
0.820092,0.334231,1.315234,22,20,20
0.825509,0.333803,1.313550,22,20,20
0.829851,0.332951,1.310194,19,17,18
0.836301,0.332951,1.310194,19,18,18
0.841140,0.332314,1.307689,17,17,18
0.845961,0.331680,1.305194,16,18,15
0.850223,0.330838,1.301881,18,18,18
0.853384,0.329583,1.296944,15,18,19
0.857060,0.328545,1.292857,21,21,24
-1.725808,0.474556,1.831933,19,18,17
-1.719860,0.475405,1.835210,17,17,20
-1.715428,0.476684,1.840148,19,17,16
-1.710972,0.477970,1.845112,20,17,19
-1.704954,0.478831,1.848437,21,17,17
-1.692804,0.477970,1.845112,20,18,20
-1.682207,0.477540,1.843454,20,18,20
-1.673131,0.477540,1.843454,21,18,20
-1.668553,0.478831,1.848437,20,21,20
-1.663949,0.480129,1.853446,19,21,24
-1.650352,0.478831,1.848437,21,22,23
-1.636828,0.477540,1.843454,20,22,21
-1.623376,0.476257,1.838499,22,22,22
-1.608559,0.474556,1.831933,22,22,25
-1.595267,0.473288,1.827039,20,24,23
-1.584861,0.472867,1.825413,22,22,23
-1.573075,0.472027,1.822171,21,22,24
-1.554440,0.469111,1.810913,21,22,22
-1.530664,0.464600,1.793500,25,25,28
-1.513894,0.462176,1.784143,34,32,29
-1.498594,0.460175,1.776420,47,42,39
-1.482149,0.457797,1.767239,56,51,45
-1.460866,0.453888,1.752147,64,57,52
-1.441163,0.450426,1.738784,67,60,57
-1.422955,0.447393,1.727075,67,65,59
-1.407345,0.445144,1.718396,72,64,59
-1.393051,0.443288,1.711230,73,72,65
-1.375449,0.440350,1.699888,79,75,70
-1.359197,0.437811,1.690086,80,75,71
-1.336564,0.433172,1.672180,80,75,68
-1.321867,0.431064,1.664043,70,69,59
-1.309427,0.429670,1.658662,25,30,29
-1.297066,0.428286,1.653315,8,6,7
-1.288927,0.428286,1.653315,8,7,8
-1.281820,0.428631,1.654649,9,6,6
-1.278830,0.430366,1.661348,8,6,10
-1.278936,0.433172,1.672180,7,7,5
-1.273817,0.434234,1.676278,9,7,6
-1.273891,0.437091,1.687306,8,7,7
-1.271859,0.439258,1.695673,9,7,9
-1.270863,0.441814,1.705540,7,7,5
-1.270918,0.444772,1.716958,8,7,7
-1.270973,0.447770,1.728530,8,7,8
-1.271030,0.450808,1.740258,9,8,8
-1.267839,0.452728,1.747670,9,6,8
-1.262460,0.453888,1.752147,9,7,7
-1.259211,0.455834,1.759661,9,7,6
-1.255933,0.457797,1.767239,8,6,7
-1.251545,0.459380,1.773349,8,8,7
-1.248208,0.461374,1.781046,7,6,9
-1.243758,0.462981,1.787251,8,7,10
-1.241447,0.465414,1.796641,8,6,8
-1.238022,0.467460,1.804542,9,7,8
-1.233477,0.469111,1.810913,8,8,8
-1.227813,0.470356,1.815721,9,6,7
-1.223203,0.472027,1.822171,8,6,7
-1.217476,0.473288,1.827039,8,8,7
-1.211718,0.474556,1.831933,6,7,8
-1.208092,0.476684,1.840148,8,6,7
-1.203350,0.478400,1.846773,8,7,7
-1.197491,0.479695,1.851773,9,6,9
-1.193761,0.481870,1.860167,8,7,5
-1.189997,0.484064,1.868638,7,7,9
-1.185115,0.485834,1.875470,10,7,8
-1.181280,0.488065,1.884081,10,8,8
-1.180678,0.491677,1.898024,9,7,6
-1.176777,0.493961,1.906844,8,6,6
-1.173935,0.496731,1.917537,8,6,8
-1.172163,0.500002,1.930164,8,7,8
-1.170367,0.503317,1.942959,9,7,7
-1.167434,0.506193,1.954062,8,7,5
-1.163354,0.508615,1.963411,8,6,6
-1.343260,0.597194,2.305353,11,9,6
-1.341709,0.601587,2.322314,11,9,12
-1.337086,0.604667,2.334203,11,9,11
-1.335470,0.609172,2.351593,12,9,11
-1.332291,0.613036,2.366510,15,10,10
-1.329843,0.617308,2.383002,11,10,10
-1.319643,0.618026,2.385773,13,11,12
-1.312476,0.620189,2.394124,17,12,12
-1.300689,0.620189,2.394124,15,13,12
-1.289654,0.620552,2.395522,15,14,13
-1.277115,0.620189,2.394124,18,14,13
-1.266067,0.620552,2.395522,16,15,15
-1.247718,0.617308,2.383002,15,14,15
-1.024375,0.516523,1.993940,8,5,6
-1.015545,0.517026,1.995880,7,6,7
-0.998917,0.513529,1.982381,7,6,8
-0.982512,0.510079,1.969064,9,7,7
-0.969098,0.508129,1.961534,8,6,7
-0.953969,0.505230,1.950346,7,6,5
-0.942575,0.504272,1.946646,6,6,5
-0.930343,0.502841,1.941121,6,5,6
-0.919047,0.501891,1.937455,5,6,7
-0.907794,0.500945,1.933803,7,6,5
-0.896583,0.500002,1.930164,8,6,6
-0.886247,0.499532,1.928350,7,4,5
-0.875930,0.499063,1.926540,6,5,5
-0.864821,0.498128,1.922928,5,7,7
-0.852955,0.496731,1.917537,8,8,8
-0.840373,0.494881,1.910395,11,12,13
-0.830968,0.494881,1.910395,13,14,17
-0.826178,0.497661,1.921128,17,16,19
-0.932060,0.574597,2.218124,9,8,8
-0.911775,0.568756,2.195575,8,7,9
-0.895218,0.565128,2.181568,7,5,5
-0.872419,0.557423,2.151824,8,5,5
-0.848477,0.548789,2.118497,6,5,4
-0.830331,0.543736,2.098992,8,5,4
-0.814994,0.540419,2.086187,5,6,6
-0.795822,0.534442,2.063112,7,7,5
-0.781735,0.531768,2.052791,7,4,6
-0.769319,0.530177,2.046648,8,6,5
-0.754726,0.527023,2.034472,7,6,5
-0.743236,0.525980,2.030445,7,6,5
-0.731791,0.524941,2.026434,7,6,5
-0.721458,0.524682,2.025434,7,6,7
-0.711838,0.524941,2.026434,6,5,4
-0.701168,0.524423,2.024435,7,5,6
-0.691202,0.524423,2.024435,9,6,7
-0.681907,0.524941,2.026434,10,8,9
-0.673928,0.526501,2.032456,12,11,12
-0.665900,0.528070,2.038514,13,11,11
-0.657825,0.529649,2.044609,11,11,12
-0.649701,0.531237,2.050739,10,12,13
-0.642172,0.533369,2.058971,15,15,15
-0.634263,0.535249,2.066228,17,18,18
-0.626614,0.537414,2.074585,20,19,20
-0.619848,0.540419,2.086187,18,19,19
-0.612066,0.542626,2.094706,20,19,16
-0.604531,0.545131,2.104374,19,16,16
-0.597233,0.547941,2.115221,14,13,14
-0.589859,0.550780,2.126181,8,8,9
-0.583017,0.554226,2.139483,8,6,7
-0.575786,0.557423,2.151824,7,4,6
-0.569672,0.561842,2.168884,7,5,5
-0.562263,0.565128,2.181568,6,4,3
-0.555659,0.569365,2.197927,7,4,4
-0.549250,0.573977,2.215729,6,5,6
-0.540971,0.576780,2.226549,8,7,6
-0.532610,0.579610,2.237475,8,6,7
-0.527345,0.586000,2.262144,8,6,7
-0.523421,0.594189,2.293756,7,7,6
-0.517918,0.600907,2.319689,7,6,7
-0.509377,0.604323,2.332876,8,4,4
-0.500453,0.607431,2.344874,5,5,5
-0.491718,0.610922,2.358350,8,5,5
-0.483441,0.615165,2.374727,6,4,8
-0.475049,0.619467,2.391334,7,5,6
-0.466264,0.623463,2.406762,7,5,6
-0.456289,0.626034,2.416684,5,5,6
-0.445440,0.627512,2.422390,6,5,3
-0.435055,0.629742,2.431001,6,5,2
-0.424091,0.631238,2.436775,7,5,6
-0.412339,0.631613,2.438223,7,6,6
-0.397735,0.627512,2.422390,7,5,4
-0.384901,0.626034,2.416684,8,5,6
-0.374325,0.628253,2.425254,8,4,4
-0.363675,0.630489,2.433884,8,6,5
-0.352110,0.631238,2.436775,8,7,7
-0.342349,0.635388,2.452797,8,6,7
-0.335691,0.645811,2.493031,15,12,13
-0.326391,0.651750,2.515959,21,19,21
-0.310577,0.644636,2.488495,21,19,19
-0.298145,0.644245,2.486987,23,21,20
-0.284521,0.641137,2.474988,23,21,21
-0.270056,0.635768,2.454264,22,20,19
-0.260622,0.642299,2.479474,22,21,21
-0.243992,0.630863,2.435329,23,22,22
-0.070726,0.214488,0.827992,27,28,25
-0.064565,0.207780,0.802097,27,25,24
-0.060380,0.206971,0.798974,21,21,20
-0.055838,0.204739,0.790356,21,18,17
-0.051708,0.203797,0.786720,20,19,20
-0.047652,0.203018,0.783714,20,19,19
-0.043594,0.202092,0.780139,21,20,22
-0.039632,0.201479,0.777773,25,20,20
-0.035641,0.200567,0.774251,24,22,20
-0.031757,0.200114,0.772502,25,22,20
-0.027912,0.199813,0.771340,21,22,22
-0.024060,0.199363,0.769604,24,23,21
-0.020225,0.198916,0.767876,26,22,22
-0.016420,0.198618,0.766728,23,22,19
-0.012627,0.198322,0.765584,24,23,21
-0.008844,0.198026,0.764443,26,24,20
-0.005073,0.197732,0.763305,23,22,21
-0.001314,0.197585,0.762738,24,23,21
0.002439,0.197438,0.762171,23,23,21
0.006187,0.197291,0.761605,25,19,19
0.009929,0.197145,0.761040,20,19,19
0.013666,0.196999,0.760476,21,20,19
0.017384,0.196707,0.759350,21,18,17
0.021123,0.196707,0.759350,18,16,17
0.024824,0.196416,0.758228,17,14,15
0.028578,0.196562,0.758789,16,15,13
0.032290,0.196416,0.758228,17,14,14
0.036050,0.196562,0.758789,16,14,14
0.039756,0.196416,0.758228,17,13,15
0.043457,0.196271,0.757668,18,14,13
0.047152,0.196126,0.757109,20,15,15
0.050842,0.195982,0.756550,19,17,16
0.054527,0.195837,0.755993,19,15,16
0.058206,0.195693,0.755436,19,15,18
0.061880,0.195549,0.754880,17,19,15
0.065548,0.195405,0.754325,20,18,15
0.069262,0.195405,0.754325,22,18,16
0.072868,0.195118,0.753218,22,18,17
0.076576,0.195118,0.753218,24,19,17
0.080226,0.194975,0.752665,21,20,17
0.083931,0.194975,0.752665,21,20,19
0.087573,0.194832,0.752113,27,20,19
0.091209,0.194690,0.751562,24,20,21
0.094909,0.194690,0.751562,24,21,19
0.098537,0.194547,0.751012,22,20,17
0.102234,0.194547,0.751012,22,19,18
0.105932,0.194547,0.751012,21,19,19
0.109709,0.194690,0.751562,22,20,19
0.113410,0.194690,0.751562,21,20,17
0.117110,0.194690,0.751562,20,17,16
0.120898,0.194832,0.752113,25,19,17
0.124876,0.195262,0.753771,19,18,19
0.128776,0.195549,0.754880,23,18,14
0.132688,0.195837,0.755993,25,19,19
0.136611,0.196126,0.757109,19,17,18
0.140442,0.196271,0.757668,21,16,15
0.144493,0.196707,0.759350,17,16,17
0.148561,0.197145,0.761040,18,14,15
0.152761,0.197732,0.763305,16,16,15
0.156986,0.198322,0.765584,15,15,16
0.161116,0.198767,0.767302,16,13,13
0.165513,0.199513,0.770182,13,11,13
0.169815,0.200114,0.772502,13,11,12
0.174670,0.201327,0.777184,13,12,13
0.179448,0.202400,0.781327,13,12,12
0.183996,0.203174,0.784314,13,13,14
0.189596,0.205055,0.791576,19,17,17
0.456863,0.465414,1.796641,13,8,7
0.472326,0.472027,1.822171,11,8,7
0.480444,0.471190,1.818940,11,7,6
0.486381,0.468284,1.807722,12,8,7
0.488396,0.461774,1.782593,13,6,4
0.498037,0.462578,1.785696,13,7,6
0.508599,0.464194,1.791934,11,8,6
0.517874,0.464600,1.793500,11,7,7
0.525785,0.463789,1.790370,12,7,7
0.533668,0.462981,1.787251,10,7,5
0.541995,0.462578,1.785696,11,6,6
0.550307,0.462176,1.784143,11,5,5
0.559091,0.462176,1.784143,10,7,4
0.565417,0.460175,1.776420,12,7,4
0.572675,0.458983,1.771817,12,6,6
0.578899,0.457010,1.764200,9,5,4
0.584069,0.454276,1.753645,8,6,3
0.553987,0.418506,1.615563,9,7,9
0.557550,0.415236,1.602941,7,4,7
0.562804,0.413299,1.595462,8,5,6
0.568449,0.411698,1.589283,8,5,6
0.572724,0.409163,1.579495,9,6,7
0.576506,0.406347,1.568627,8,8,9
0.580678,0.403877,1.559092,9,8,9
0.585240,0.401740,1.550842,8,7,7
0.588428,0.398726,1.539208,9,7,7
0.592892,0.396644,1.531168,9,7,8
0.597754,0.394875,1.524342,9,7,7
0.602573,0.393123,1.517577,8,7,9
0.606902,0.391098,1.509760,7,6,7
0.611635,0.389379,1.503124,8,6,6
0.616326,0.387675,1.496546,8,4,4
0.620976,0.385986,1.490025,7,5,7
0.625134,0.384034,1.482489,8,5,5
0.630156,0.382651,1.477152,5,4,5
0.635598,0.381552,1.472911,6,6,3
0.640093,0.379916,1.466594,6,5,4
0.645468,0.378833,1.462412,6,6,3
0.650812,0.377756,1.458255,6,5,2
0.656126,0.376685,1.454121,6,5,3
0.660943,0.375355,1.448986,6,5,6
0.667606,0.375090,1.447964,5,4,5
0.673783,0.374561,1.445923,7,4,3
0.680422,0.374297,1.444905,5,4,4
0.687536,0.374297,1.444905,6,5,3
0.694650,0.374297,1.444905,6,4,5
0.701270,0.374034,1.443888,6,4,4
0.707880,0.373771,1.442872,5,3,5
0.713980,0.373246,1.440846,7,4,3
0.721580,0.373508,1.441858,6,4,2
0.728679,0.373508,1.441858,4,4,5
0.735777,0.373508,1.441858,6,3,6
0.742876,0.373508,1.441858,6,4,3
0.750502,0.373771,1.442872,4,4,3
0.756542,0.373246,1.440846,7,5,3
0.763100,0.372984,1.439835,5,3,2
0.769648,0.372723,1.438825,4,4,3
0.775644,0.372201,1.436810,5,4,5
0.781623,0.371680,1.434800,5,3,5
0.788687,0.371680,1.434800,7,5,7
0.796865,0.372201,1.436810,16,13,11
0.803377,0.371940,1.435804,14,14,13
0.804255,0.369099,1.424837,16,13,13
0.788278,0.358639,1.384457,11,11,13
0.786602,0.354808,1.369669,13,14,14
0.787040,0.351988,1.358784,16,15,17
0.789027,0.349903,1.350734,14,18,16
0.792547,0.348526,1.345419,18,20,22
0.796559,0.347387,1.341023,23,22,21
0.799503,0.345805,1.334915,23,24,25
0.802941,0.344460,1.329724,25,24,25
0.806873,0.343348,1.325429,26,26,21
0.811302,0.342463,1.322013,23,23,22
0.815708,0.341583,1.318615,23,22,22
0.820618,0.340925,1.316077,21,21,21
0.825509,0.340270,1.313550,20,21,19
0.829851,0.339401,1.310194,17,18,20
0.835768,0.339185,1.309358,16,18,19
0.840605,0.338537,1.306856,18,17,16
0.845423,0.337891,1.304364,17,16,18
0.849146,0.336820,1.300231,17,16,17
0.852845,0.335756,1.296124,19,19,19
0.855982,0.334489,1.291230,22,22,23
-1.695530,0.475091,1.799793,20,18,22
-1.688150,0.475508,1.801373,20,20,22
-1.682236,0.476345,1.804542,22,19,21
-1.673351,0.476345,1.804542,18,20,20
-1.660087,0.475091,1.799793,22,20,22
-1.644015,0.473016,1.791934,33,29,27
-1.630920,0.471780,1.787251,39,38,32
-1.619300,0.470960,1.784143,44,43,39
-1.614728,0.472192,1.788810,50,48,44
-1.605922,0.472192,1.788810,50,49,46
-1.592948,0.470960,1.784143,55,51,43
-1.578673,0.469327,1.777959,55,50,44
-1.567204,0.468515,1.774883,53,52,46
-1.555774,0.467706,1.771817,54,53,47
-1.544384,0.466900,1.768763,55,54,45
-1.534353,0.466498,1.767239,58,55,46
-1.523028,0.465695,1.764200,62,55,48
-1.503997,0.462514,1.752147,63,56,46
-1.481455,0.458210,1.735842,62,60,51
-1.467941,0.456664,1.729987,68,60,53
-1.456967,0.455895,1.727075,72,64,57
-1.444815,0.454747,1.722724,71,67,63
-1.430329,0.452846,1.715522,77,69,64
-1.417144,0.451337,1.709804,70,68,63
-1.401717,0.449091,1.701297,73,68,64
-1.388735,0.447606,1.695673,75,70,64
-1.374706,0.445764,1.688695,80,73,67
-1.359678,0.443574,1.680397,77,77,72
-1.346992,0.442126,1.674910,81,74,68
-1.328982,0.438901,1.662694,77,76,70
-1.317593,0.437837,1.658662,57,59,52
-1.305206,0.436425,1.653315,11,10,16
-1.294979,0.435723,1.650655,8,7,7
-1.288927,0.436425,1.653315,8,6,8
-1.285968,0.438191,1.660004,7,7,7
-1.282986,0.439971,1.666746,8,7,7
-1.282070,0.442487,1.676278,8,6,6
-1.276947,0.443574,1.680397,8,6,7
-1.277041,0.446499,1.691479,9,6,6
-1.276078,0.449091,1.701297,8,8,8
-1.275103,0.451713,1.711230,9,6,7
-1.275186,0.454747,1.722724,11,8,8
-1.275271,0.457822,1.734374,8,8,6
-1.273190,0.460156,1.743215,8,7,6
-1.268920,0.461725,1.749160,8,7,8
-1.264620,0.463305,1.755145,8,7,7
-1.260292,0.464896,1.761171,8,7,9
-1.257016,0.466900,1.768763,9,8,7
-1.252627,0.468515,1.774883,8,7,7
-1.248208,0.470142,1.781046,8,7,7
-1.243758,0.471780,1.787251,8,7,8
-1.242535,0.474675,1.798216,7,7,9
-1.239112,0.476764,1.806131,8,6,6
-1.234567,0.478449,1.812513,6,7,7
-1.228900,0.479720,1.817329,9,7,8
-1.222118,0.480571,1.820554,8,6,7
-1.218561,0.482713,1.828667,8,7,8
-1.212801,0.484007,1.833570,7,7,7
-1.207010,0.485308,1.838499,8,7,8
-1.202268,0.487054,1.845112,8,6,7
-1.197491,0.488812,1.851773,8,7,7
-1.193761,0.491028,1.860167,8,7,10
-1.189997,0.493264,1.868638,9,8,4
-1.185115,0.495067,1.875470,9,8,6
-1.181280,0.497341,1.884081,7,7,7
-1.179587,0.500558,1.896270,7,6,9
-1.176777,0.503349,1.906844,8,6,6
-1.173935,0.506172,1.917537,7,7,7
-1.171061,0.509026,1.928350,7,7,6
-1.169260,0.512397,1.941121,9,8,6
-1.166324,0.515322,1.952202,7,6,8
-1.163354,0.518281,1.963411,7,6,7
-1.337250,0.605821,2.295039,11,9,9
-1.337924,0.611291,2.315761,11,7,9
-1.332538,0.614063,2.326264,12,9,8
-1.331654,0.618976,2.344874,12,10,10
-1.327697,0.622533,2.358350,12,11,9
-1.323693,0.626132,2.371982,12,12,10
-1.314295,0.627219,2.376103,13,12,11
-1.305620,0.628675,2.381619,13,13,14
-1.293895,0.628675,2.381619,15,13,13
-1.281426,0.628311,2.380237,16,13,15
-1.269707,0.628311,2.380237,14,14,13
-1.257259,0.627946,2.378857,17,16,13
-1.241230,0.625770,2.370612,17,13,13
-1.209299,0.615459,2.331551,10,10,8
-1.025372,0.526852,1.995880,7,5,7
-1.012590,0.525319,1.990072,6,6,5
-0.996991,0.522279,1.978558,8,6,5
-0.981570,0.519275,1.967176,8,6,5
-0.968172,0.517291,1.959660,5,5,5
-0.954876,0.515322,1.952202,8,5,5
-0.942575,0.513856,1.946646,6,5,6
-0.929463,0.511913,1.939286,8,5,6
-0.919047,0.511429,1.937455,5,5,6
-0.907794,0.510465,1.933803,8,6,7
-0.896583,0.509505,1.930164,7,5,6
-0.885415,0.508548,1.926540,6,6,6
-0.875930,0.508548,1.926540,7,4,6
-0.864011,0.507120,1.921128,7,5,4
-0.852159,0.505699,1.915746,9,6,10
-0.841941,0.505228,1.913960,11,10,16
-0.833295,0.505699,1.915746,14,12,17
-0.826952,0.507595,1.922928,15,16,17
-0.922091,0.579255,2.194401,11,9,8
-0.906923,0.576481,2.183890,9,6,7
-0.892845,0.574341,2.175784,10,6,7
-0.871961,0.567719,2.150697,7,5,4
-0.848039,0.558931,2.117404,8,5,6
-0.829906,0.553787,2.097919,8,6,6
-0.814580,0.550410,2.085127,8,5,6
-0.795422,0.544325,2.062075,8,6,6
-0.779784,0.540523,2.047669,8,5,7
-0.763229,0.535976,2.030445,8,6,7
-0.747683,0.532027,2.015486,9,7,8
-0.737398,0.531766,2.014496,9,6,6
-0.726410,0.530984,2.011534,8,7,6
-0.717210,0.531505,2.013508,9,12,13
-0.708340,0.532289,2.016476,15,13,13
-0.698069,0.532027,2.015486,16,15,13
-0.689501,0.533075,2.019453,14,12,13
-0.680563,0.533863,2.022439,13,13,13
-0.672928,0.535711,2.029441,14,14,11
-0.664250,0.536773,2.033463,17,15,15
-0.656190,0.538374,2.039527,15,14,12
-0.648405,0.540253,2.046648,15,13,17
-0.640565,0.542146,2.053818,14,12,13
-0.632670,0.544052,2.061039,14,13,13
-0.625034,0.546247,2.069354,15,12,13
-0.618276,0.549294,2.080897,15,13,14
-0.610197,0.551251,2.088310,15,14,15
-0.602676,0.553787,2.097919,17,15,14
-0.594780,0.556061,2.106534,13,13,12
-0.588031,0.559508,2.119591,10,11,10
-0.580897,0.562705,2.131703,8,6,6
-0.573980,0.566235,2.145075,7,5,7
-0.568171,0.571011,2.163168,6,5,6
-0.561070,0.574646,2.176939,7,5,5
-0.554471,0.578946,2.193228,8,6,5
-0.547772,0.583310,2.209763,8,6,7
-0.540092,0.586786,2.222930,8,5,4
-0.531740,0.589661,2.233821,9,6,5
-0.527054,0.596809,2.260898,8,5,5
-0.521962,0.603795,2.287363,8,5,5
-0.515297,0.609228,2.307947,6,5,6
-0.506784,0.612674,2.321001,8,5,4
-0.497609,0.615459,2.331551,6,4,5
-0.488908,0.618976,2.344874,6,5,4
-0.480660,0.623250,2.361064,5,4,6
-0.472570,0.627946,2.378857,7,6,7
-0.464087,0.632345,2.395522,8,5,6
-0.454682,0.635685,2.408174,6,4,3
-0.444129,0.637556,2.415261,7,4,5
-0.433514,0.639438,2.422390,7,4,5
-0.422836,0.641331,2.429561,7,6,5
-0.411361,0.642091,2.432442,7,6,5
-0.396799,0.637931,2.416684,7,5,3
-0.383996,0.636432,2.411004,8,6,5
-0.373442,0.638684,2.419534,8,6,5
-0.363244,0.641711,2.431001,8,7,6
-0.351484,0.642091,2.432442,9,6,4
-0.341736,0.646305,2.448406,8,7,7
-0.334674,0.656092,2.485481,11,12,13
-0.324600,0.660492,2.502152,22,19,18
-0.308891,0.653322,2.474988,23,19,20
-0.296885,0.653716,2.476481,22,20,20
-0.283666,0.651358,2.467546,20,19,20
-0.269894,0.647464,2.452797,21,20,21
-0.259994,0.652928,2.473495,23,21,19
-0.243415,0.641331,2.429561,24,21,20
-0.070841,0.218918,0.829331,30,28,26
-0.064666,0.212061,0.803353,24,24,25
-0.060427,0.211069,0.799596,21,23,19
-0.055924,0.208952,0.791576,23,18,19
-0.051747,0.207830,0.787323,24,18,18
-0.047688,0.207035,0.784314,19,16,17
-0.043660,0.206247,0.781327,22,21,18
-0.039662,0.205464,0.778363,22,21,20
-0.035668,0.204533,0.774836,20,19,20
-0.031757,0.203917,0.772502,26,22,20
-0.027912,0.203610,0.771340,25,22,21
-0.024078,0.203305,0.770182,23,24,20
-0.020241,0.202848,0.768451,25,24,21
-0.016420,0.202393,0.766728,26,21,20
-0.012636,0.202242,0.766156,24,21,21
-0.008844,0.201790,0.764443,26,23,21
-0.005077,0.201640,0.763874,27,23,22
-0.001314,0.201340,0.762738,24,20,22
0.002441,0.201340,0.762738,25,21,18
0.006187,0.201041,0.761605,25,19,20
0.009929,0.200892,0.761040,24,19,19
0.013656,0.200594,0.759913,23,19,16
0.017384,0.200446,0.759350,19,18,17
0.021123,0.200446,0.759350,19,15,16
0.024843,0.200297,0.758789,18,15,16
0.028578,0.200297,0.758789,18,15,11
0.032314,0.200297,0.758789,15,14,13
0.036023,0.200149,0.758228,16,13,12
0.039756,0.200149,0.758228,18,14,15
0.043457,0.200001,0.757668,17,14,15
0.047152,0.199854,0.757109,19,15,13
0.050805,0.199559,0.755993,21,16,16
0.054527,0.199559,0.755993,20,16,15
0.058206,0.199412,0.755436,18,17,16
0.061880,0.199266,0.754880,22,18,17
0.065548,0.199119,0.754325,21,18,16
0.069211,0.198973,0.753771,22,18,16
0.072922,0.198973,0.753771,21,19,18
0.076633,0.198973,0.753771,23,19,18
0.080285,0.198827,0.753218,21,20,18
0.083931,0.198681,0.752665,22,18,18
0.087573,0.198535,0.752113,24,21,20
0.091209,0.198390,0.751562,25,19,20
0.094909,0.198390,0.751562,25,20,19
0.098537,0.198244,0.751012,24,20,18
0.102234,0.198244,0.751012,24,20,19
0.105932,0.198244,0.751012,24,19,21
0.109709,0.198390,0.751562,23,20,20
0.113410,0.198390,0.751562,22,20,18
0.117110,0.198390,0.751562,22,19,18
0.120898,0.198535,0.752113,22,19,19
0.124784,0.198827,0.753218,22,20,20
0.128682,0.199119,0.754325,21,18,17
0.132590,0.199412,0.755436,23,19,17
0.136511,0.199706,0.756550,18,18,16
0.140546,0.200149,0.758228,20,18,17
0.144600,0.200594,0.759913,21,16,15
0.148671,0.201041,0.761605,16,15,14
0.152648,0.201340,0.762738,16,16,15
0.156869,0.201940,0.765013,16,16,14
0.161237,0.202696,0.767876,17,15,13
0.165389,0.203152,0.769604,15,14,13
0.169815,0.203917,0.772502,15,13,12
0.174538,0.204998,0.776595,15,14,14
0.179448,0.206247,0.781327,16,13,14
0.183996,0.207035,0.784314,20,18,16
0.190183,0.209599,0.794027,22,18,18
0.459681,0.477184,1.807722,13,9,8
0.474856,0.483575,1.831933,12,8,7
0.482583,0.482283,1.827039,10,8,7
0.487670,0.478449,1.812513,12,8,5
0.489672,0.471780,1.787251,12,7,6
0.499777,0.473016,1.791934,11,7,6
0.510382,0.474675,1.798216,11,8,5
0.518781,0.474259,1.796641,11,7,6
0.526704,0.473430,1.793500,11,7,3
0.534599,0.472604,1.790370,8,6,4
0.542467,0.471780,1.787251,11,6,4
0.551266,0.471780,1.787251,10,5,5
0.559091,0.470960,1.784143,8,6,4
0.564439,0.468110,1.773349,8,6,6
0.572181,0.467303,1.770289,11,7,7
0.578401,0.465295,1.762684,10,7,6
0.580595,0.460156,1.743215,10,6,5
0.553441,0.432246,1.637482,10,8,9
0.553987,0.426460,1.615563,10,8,12
0.557550,0.423128,1.602941,6,4,4
0.562804,0.421154,1.595462,6,4,5
0.568449,0.419523,1.589283,5,5,6
0.572284,0.416618,1.578280,6,5,5
0.576066,0.413754,1.567429,8,6,10
0.580237,0.411241,1.557908,9,8,9
0.584798,0.409066,1.549671,9,8,8
0.587987,0.406000,1.538054,9,8,7
0.592450,0.403881,1.530026,8,7,8
0.597754,0.402380,1.524342,8,8,8
0.602128,0.400298,1.516456,9,6,8
0.606456,0.398238,1.508650,5,6,6
0.611187,0.396489,1.502024,9,6,7
0.615877,0.394755,1.495455,7,7,6
0.620976,0.393322,1.490025,8,5,4
0.625134,0.391332,1.482489,8,6,6
0.630610,0.390204,1.478217,7,6,5
0.635142,0.388525,1.471854,7,5,5
0.640551,0.387413,1.467643,6,4,4
0.645928,0.386308,1.463456,8,4,4
0.650812,0.384935,1.458255,6,5,8
0.656592,0.384116,1.455152,7,5,6
0.661410,0.382759,1.450010,5,4,6
0.668077,0.382489,1.448986,5,4,5
0.674258,0.381949,1.446943,7,4,4
0.680902,0.381680,1.445923,6,4,3
0.687536,0.381411,1.444905,7,3,4
0.694650,0.381411,1.444905,4,5,5
0.701270,0.381143,1.443888,5,4,4
0.707880,0.380875,1.442872,6,4,5
0.714481,0.380607,1.441858,8,5,4
0.722087,0.380875,1.442872,6,5,4
0.728679,0.380607,1.441858,5,4,4
0.735261,0.380340,1.440846,8,5,2
0.742354,0.380340,1.440846,6,4,2
0.749448,0.380340,1.440846,7,4,4
0.756011,0.380073,1.439835,6,4,3
0.762564,0.379806,1.438825,4,4,3
0.768570,0.379274,1.436810,5,4,5
0.774559,0.378744,1.434800,7,4,3
0.781077,0.378479,1.433798,5,4,4
0.787585,0.378215,1.432796,6,5,5
0.794640,0.378215,1.432796,11,10,9
0.800575,0.377687,1.430798,14,13,11
0.802583,0.375332,1.421874,12,11,10
0.787746,0.365208,1.383523,12,10,11
0.786602,0.361551,1.369669,15,14,16
0.787562,0.358916,1.359685,15,15,15
0.789547,0.356788,1.351624,17,16,18
0.792547,0.355150,1.345419,18,19,21
0.796039,0.353758,1.340147,21,23,24
0.798464,0.351919,1.333180,24,23,24
0.802421,0.350780,1.328863,23,23,26
0.806873,0.349873,1.325429,26,24,23
0.811302,0.348972,1.322013,26,24,22
0.815708,0.348074,1.318615,24,23,22
0.820618,0.347405,1.316077,19,20,21
0.826038,0.346960,1.314391,21,22,22
0.829851,0.345852,1.310194,19,19,20
0.836301,0.345852,1.310194,20,19,18
0.840605,0.344971,1.306856,17,17,17
0.844350,0.343875,1.302708,18,17,18
0.848071,0.342787,1.298585,18,19,20
0.851232,0.341490,1.293672,22,23,24
0.854906,0.340417,1.289607,18,18,19
-1.661999,0.474381,1.764200,26,21,21
-1.649059,0.473161,1.759661,29,28,28
-1.631998,0.470738,1.750652,31,28,31
-1.613741,0.467943,1.740258,36,36,32
-1.511858,0.457847,1.702709,66,62,52
-1.504724,0.458227,1.704123,65,59,56
-1.496334,0.458227,1.704123,70,64,58
-1.490420,0.458989,1.706959,69,64,57
-1.484486,0.459754,1.709804,67,64,57
-1.474839,0.459372,1.708380,71,63,63
-1.459139,0.457088,1.699888,72,69,66
-1.442405,0.454452,1.690086,73,72,61
-1.435266,0.454827,1.691479,75,72,63
-1.424590,0.454078,1.688695,78,72,67
-1.417442,0.454452,1.690086,78,72,69
-1.407962,0.454078,1.688695,78,73,64
-1.397348,0.453332,1.685920,75,70,68
-1.384497,0.451847,1.680397,73,67,59
-1.372851,0.450740,1.676278,74,70,63
-1.359046,0.448906,1.669459,80,71,68
-1.346445,0.447450,1.664043,87,82,76
-1.335004,0.446363,1.660004,84,79,67
-1.322551,0.444924,1.654649,79,70,58
-1.313346,0.444565,1.653315,27,31,31
-1.303106,0.443850,1.650655,7,6,6
-1.296022,0.444207,1.651984,7,6,6
-1.292050,0.445642,1.657322,8,6,6
-1.289097,0.447450,1.664043,7,6,7
-1.286120,0.449271,1.670818,7,6,6
-1.284169,0.451477,1.679022,8,6,6
-1.280092,0.452960,1.684536,9,7,6
-1.280208,0.455955,1.695673,8,7,7
-1.280324,0.458989,1.706959,8,6,7
-1.278301,0.461292,1.715522,9,6,7
-1.278407,0.464398,1.727075,8,6,7
-1.276350,0.466756,1.735842,8,7,9
-1.274272,0.469137,1.744698,10,8,6
-1.270002,0.470738,1.750652,8,7,9
-1.265703,0.472350,1.756648,7,6,7
-1.262459,0.474381,1.764200,8,8,8
-1.259187,0.476429,1.771817,8,6,6
-1.254798,0.478081,1.777959,8,8,7
-1.250379,0.479744,1.784143,8,9,10
-1.245929,0.481418,1.790370,9,7,7
-1.243625,0.483952,1.799793,7,7,6
-1.241297,0.486513,1.809316,8,6,6
-1.236752,0.488235,1.815721,7,8,8
-1.229990,0.489100,1.818940,7,6,9
-1.224291,0.490405,1.823791,8,7,7
-1.218561,0.491716,1.828667,8,6,4
-1.212801,0.493034,1.833570,7,7,6
-1.208092,0.494803,1.840148,7,6,6
-1.203350,0.496584,1.846773,8,6,8
-1.196411,0.497480,1.850103,8,6,7
-1.192680,0.499733,1.858482,8,6,7
-1.188915,0.502007,1.866938,8,5,6
-1.185115,0.504301,1.875470,6,7,7
-1.180197,0.506152,1.882353,7,7,6
-1.179587,0.509894,1.896270,7,7,5
-1.176777,0.512737,1.906844,7,6,5
-1.172839,0.515131,1.915746,7,6,10
-1.169961,0.518033,1.926540,7,6,5
-1.169260,0.521954,1.941121,7,6,6
-1.166324,0.524934,1.952202,8,5,5
-1.162242,0.527443,1.961534,8,6,9
-1.329813,0.613688,2.282274,10,11,8
-1.334159,0.620940,2.309246,12,9,10
-1.327271,0.623044,2.317069,15,9,9
-1.325595,0.627651,2.334203,10,10,9
-1.320110,0.630520,2.344874,11,9,11
-1.316086,0.634144,2.358350,12,10,10
-1.307481,0.635605,2.363784,14,12,12
-1.296590,0.635971,2.365146,13,13,12
-1.285687,0.636338,2.366510,13,15,15
-1.274036,0.636338,2.366510,16,14,14
-1.262385,0.636338,2.366510,18,15,16
-1.249293,0.635605,2.363784,16,15,15
-1.234810,0.634144,2.358350,17,15,13
-1.220394,0.632689,2.352941,15,13,13
