x,y,z,r,g,b
-0.542256,0.650680,1.660004,15,9,10
-0.535817,0.652793,1.665393,10,9,9
-0.528906,0.654386,1.669459,11,12,12
-0.272046,0.353047,0.900687,64,65,60
-0.266675,0.351811,0.897535,56,58,55
-0.263178,0.353047,0.900687,61,60,68
-0.259655,0.354291,0.903861,60,61,62
-0.255430,0.354603,0.904658,58,57,55
-0.251198,0.354916,0.905457,64,51,59
-0.246522,0.354603,0.904658,59,59,59
-0.242282,0.354916,0.905457,55,53,49
-0.237196,0.353979,0.903065,57,55,54
-0.232750,0.353979,0.903065,58,57,58
-0.228304,0.353979,0.903065,59,55,56
-0.223661,0.353668,0.902271,58,56,58
-0.219219,0.353668,0.902271,60,52,46
-0.214777,0.353668,0.902271,52,51,55
-0.210520,0.353979,0.903065,64,57,57
-0.206074,0.353979,0.903065,55,60,59
-0.201628,0.353979,0.903065,58,62,60
-0.197356,0.354291,0.903861,56,55,52
-0.193076,0.354603,0.904658,54,50,46
-0.188622,0.354603,0.904658,56,54,55
-0.184331,0.354916,0.905457,53,52,49
-0.179873,0.354916,0.905457,63,53,50
-0.175570,0.355230,0.906256,51,53,47
-0.171108,0.355230,0.906256,52,50,49
-0.166794,0.355544,0.907058,48,48,51
-0.162328,0.355544,0.907058,53,52,53
-0.158002,0.355859,0.907860,57,51,57
-0.153532,0.355859,0.907860,60,54,50
-0.149195,0.356174,0.908665,60,52,45
-0.144593,0.355859,0.907860,48,48,45
-0.139752,0.354916,0.905457,45,51,51
-0.135175,0.354603,0.904658,44,44,47
-0.130491,0.353979,0.903065,61,54,58
-0.125934,0.353668,0.902271,65,54,55
-0.121492,0.353668,0.902271,33,34,33
-0.117050,0.353668,0.902271,32,32,32
-0.112509,0.353357,0.901478,50,43,53
-0.108166,0.353668,0.902271,63,57,60
-0.103633,0.353357,0.901478,54,52,51
-0.099282,0.353668,0.902271,55,51,51
-0.095681,0.356806,0.910277,47,45,49
-0.091362,0.357440,0.911895,42,45,39
-0.086872,0.357440,0.911895,50,47,46
-0.082309,0.357123,0.911085,50,53,55
-0.077824,0.357123,0.911085,50,51,44
-0.073338,0.357123,0.911085,53,51,44
-0.068792,0.356806,0.910277,46,45,49
-0.064253,0.356490,0.909470,49,49,49
-0.059723,0.356174,0.908665,48,48,47
-0.055298,0.356490,0.909470,48,50,48
-0.050775,0.356174,0.908665,54,51,42
-0.046343,0.356490,0.909470,48,46,52
-0.041865,0.356490,0.909470,47,44,46
-0.037421,0.356806,0.910277,49,48,43
-0.032939,0.356806,0.910277,47,47,47
-0.028433,0.356490,0.909470,44,44,49
-0.023976,0.356806,0.910277,43,49,47
-0.019495,0.356806,0.910277,44,42,41
-0.015013,0.356806,0.910277,46,50,46
-0.010532,0.356806,0.910277,51,46,49
-0.006055,0.357123,0.911085,49,47,44
-0.001569,0.356806,0.910277,46,47,45
0.002916,0.357123,0.911085,46,46,48
0.007395,0.356806,0.910277,44,45,42
0.011876,0.356806,0.910277,51,50,47
0.016358,0.356806,0.910277,49,47,46
0.020858,0.357123,0.911085,50,51,46
0.025366,0.357440,0.911895,47,46,47
0.029855,0.357440,0.911895,51,48,44
0.034345,0.357440,0.911895,48,44,47
0.038834,0.357440,0.911895,50,50,46
0.043401,0.358077,0.913519,47,47,47
0.047941,0.358396,0.914334,53,46,46
0.052490,0.358716,0.915149,50,50,46
0.056995,0.358716,0.915149,49,46,51
0.061501,0.358716,0.915149,51,50,50
0.066006,0.358716,0.915149,49,47,48
0.070512,0.358716,0.915149,51,50,52
0.075017,0.358716,0.915149,45,48,51
0.079523,0.358716,0.915149,48,48,49
0.084028,0.358716,0.915149,47,45,44
0.088613,0.359036,0.915966,46,50,48
0.093206,0.359357,0.916785,52,49,47
0.097719,0.359357,0.916785,54,49,46
0.102233,0.359357,0.916785,47,47,51
0.106842,0.359678,0.917605,47,42,52
0.111459,0.360000,0.918426,50,49,49
0.116085,0.360323,0.919249,47,48,52
0.120610,0.360323,0.919249,48,53,47
0.125248,0.360646,0.920074,45,47,49
0.129895,0.360970,0.920900,50,48,46
0.134429,0.360970,0.920900,51,44,51
0.138962,0.360970,0.920900,53,49,47
0.143496,0.360970,0.920900,52,48,50
0.148030,0.360970,0.920900,51,50,49
0.152564,0.360970,0.920900,50,51,55
0.157098,0.360970,0.920900,48,49,51
0.161777,0.361294,0.921727,53,47,49
0.166165,0.360970,0.920900,51,50,48
0.170853,0.361294,0.921727,46,48,54
0.175233,0.360970,0.920900,53,51,51
0.179929,0.361294,0.921727,52,47,47
0.184466,0.361294,0.921727,52,49,50
0.189004,0.361294,0.921727,53,49,51
0.193369,0.360970,0.920900,51,52,52
0.197902,0.360970,0.920900,50,51,54
0.202255,0.360646,0.920074,55,51,51
0.206599,0.360323,0.919249,52,53,54
0.211125,0.360323,0.919249,50,50,48
0.215844,0.360646,0.920074,58,52,49
0.219979,0.360000,0.918426,53,51,55
0.224501,0.360000,0.918426,51,54,53
0.229228,0.360323,0.919249,48,50,53
0.233963,0.360646,0.920074,47,57,51
0.238493,0.360646,0.920074,53,53,56
0.243023,0.360646,0.920074,50,48,50
0.247775,0.360970,0.920900,54,50,54
0.252309,0.360970,0.920900,56,54,51
0.256612,0.360646,0.920074,51,51,56
0.261142,0.360646,0.920074,54,52,58
0.265434,0.360323,0.919249,54,50,50
0.269718,0.360000,0.918426,53,49,45
0.273994,0.359678,0.917605,56,51,56
0.278512,0.359678,0.917605,49,46,47
0.282776,0.359357,0.916785,50,50,53
0.287290,0.359357,0.916785,47,50,50
0.292064,0.359678,0.917605,52,51,50
0.297114,0.360323,0.919249,48,47,49
0.301639,0.360323,0.919249,40,47,52
0.305891,0.360000,0.918426,46,48,50
0.310413,0.360000,0.918426,47,45,49
0.314934,0.360000,0.918426,45,46,49
0.319742,0.360323,0.919249,44,46,51
0.324268,0.360323,0.919249,43,44,42
0.328794,0.360323,0.919249,42,42,36
0.333319,0.360323,0.919249,42,40,44
0.337845,0.360323,0.919249,46,38,40
0.342678,0.360646,0.920074,37,35,37
0.347208,0.360646,0.920074,37,31,33
0.352053,0.360970,0.920900,38,36,37
0.356267,0.360646,0.920074,35,33,39
0.360797,0.360646,0.920074,36,31,38
0.364999,0.360323,0.919249,32,32,32
0.370189,0.360970,0.920900,31,31,33
0.374386,0.360646,0.920074,35,34,31
0.378916,0.360646,0.920074,33,34,36
0.383790,0.360970,0.920900,27,28,32
0.387976,0.360646,0.920074,26,30,31
0.392505,0.360646,0.920074,31,34,36
0.397035,0.360646,0.920074,36,33,43
0.400846,0.360000,0.918426,37,34,40
0.405731,0.360323,0.919249,35,31,33
0.410257,0.360323,0.919249,32,34,28
0.414782,0.360323,0.919249,35,31,32
0.419684,0.360646,0.920074,33,34,39
0.424595,0.360970,0.920900,39,33,37
0.427976,0.360000,0.918426,45,49,49
0.431339,0.359036,0.915966,78,71,74
0.435460,0.358716,0.915149,83,77,93
0.439573,0.358396,0.914334,98,88,107
0.444868,0.359036,0.915966,92,83,90
0.447778,0.357758,0.912707,35,36,54
0.452674,0.358077,0.913519,53,59,72
0.457579,0.358396,0.914334,120,108,106
0.462081,0.358396,0.914334,98,88,98
0.465752,0.357758,0.912707,73,75,83
0.470665,0.358077,0.913519,69,70,75
0.476861,0.359357,0.916785,29,36,50
0.481374,0.359357,0.916785,35,31,41
0.486322,0.359678,0.917605,29,30,35
0.492161,0.360646,0.920074,30,30,31
0.497136,0.360970,0.920900,32,28,27
0.502121,0.361294,0.921727,31,30,36
0.507114,0.361619,0.922556,32,32,27
0.512578,0.362270,0.924218,25,27,28
0.517595,0.362597,0.925052,31,31,27
0.522620,0.362924,0.925887,28,30,38
0.527179,0.362924,0.925887,28,30,30
0.531258,0.362597,0.925052,29,34,28
0.536296,0.362924,0.925887,28,32,34
0.540854,0.362924,0.925887,30,33,33
0.545905,0.363252,0.926723,35,30,35
0.550965,0.363581,0.927561,28,36,32
0.555532,0.363581,0.927561,34,34,40
0.560099,0.363581,0.927561,35,34,42
0.564665,0.363581,0.927561,30,30,35
0.569232,0.363581,0.927561,33,33,33
0.573798,0.363581,0.927561,32,30,36
0.578365,0.363581,0.927561,35,35,39
0.582932,0.363581,0.927561,30,32,33
0.586968,0.363252,0.926723,36,33,39
0.591530,0.363252,0.926723,29,31,38
0.595555,0.362924,0.925887,29,32,36
0.601198,0.363581,0.927561,35,35,34
0.606313,0.363910,0.928400,38,35,43
0.610884,0.363910,0.928400,33,33,37
0.615455,0.363910,0.928400,33,33,40
-0.845540,0.356230,0.897535,76,86,88
-0.845560,0.358110,0.902271,86,80,94
-0.844833,0.359692,0.906256,84,81,86
-0.844100,0.361287,0.910277,89,89,85
-0.842609,0.362574,0.913519,89,84,86
-0.841859,0.364196,0.917605,84,87,87
-0.842618,0.366490,0.923386,84,86,87
-0.843385,0.368814,0.929241,84,84,88
-0.842627,0.370492,0.933469,86,84,90
-0.841861,0.372185,0.937735,83,82,85
-0.840317,0.373551,0.941176,85,80,85
-0.840309,0.375619,0.946386,87,84,88
-0.839522,0.377360,0.950771,76,87,81
-0.840292,0.379824,0.956980,82,78,85
-0.840284,0.381961,0.962366,85,84,87
-0.839483,0.383761,0.966901,81,82,83
-0.838675,0.385579,0.971479,84,86,80
-0.837063,0.387045,0.975173,87,83,84
-0.836237,0.388893,0.979830,80,80,85
-0.836205,0.391134,0.985478,77,79,88
-0.835365,0.393022,0.990234,78,85,86
-0.834518,0.394928,0.995036,81,82,84
-0.835290,0.397628,1.001838,80,84,77
-0.836073,0.400365,1.008734,87,80,76
-0.836867,0.403140,1.015725,86,80,78
-0.837672,0.405953,1.022814,75,77,82
-0.838067,0.408601,1.029485,79,80,84
-0.838892,0.411492,1.036768,81,82,85
-0.838448,0.413792,1.042563,83,77,81
-0.839715,0.416970,1.050571,76,78,76
-0.838838,0.419116,1.055978,82,79,75
-0.837952,0.421284,1.061441,80,75,78
-0.837056,0.423475,1.066960,78,76,79
-0.835715,0.425466,1.071977,73,79,77
-0.834360,0.427476,1.077042,72,70,68
-0.832554,0.429279,1.081584,66,67,72
-0.832937,0.432241,1.089047,65,69,68
-0.831992,0.434547,1.094858,67,66,67
-0.830145,0.436410,1.099552,66,67,69
-0.828283,0.438290,1.104287,64,69,69
-0.826405,0.440185,1.109062,67,64,67
-0.823615,0.441617,1.112671,65,67,69
-0.821255,0.443300,1.116910,72,60,66
-0.820221,0.445726,1.123024,65,60,69
-0.818275,0.447687,1.127963,63,63,72
-0.814513,0.448673,1.130449,58,57,63
-0.809840,0.449168,1.131696,61,60,57
-0.806047,0.450161,1.134198,53,58,60
-0.800905,0.450410,1.134825,52,52,63
-0.790944,0.447933,1.128583,54,57,69
-0.776841,0.443059,1.116303,61,61,76
-0.766756,0.440423,1.109662,118,92,100
-0.761293,0.440423,1.109662,136,125,144
-0.757059,0.441139,1.111465,131,126,148
-0.753628,0.442337,1.114484,124,126,137
-0.750587,0.443783,1.118128,125,126,138
-0.747118,0.444996,1.121183,125,130,143
-0.743630,0.446215,1.124255,135,130,147
-0.741753,0.448426,1.129826,131,125,150
-0.739039,0.450161,1.134198,125,124,139
-0.737122,0.452412,1.139869,123,121,136
-0.733957,0.453925,1.143681,126,121,135
-0.731179,0.455703,1.148162,128,125,141
-0.727971,0.457239,1.152030,127,117,144
-0.725149,0.459043,1.156575,126,121,142
-0.722714,0.461122,1.161815,117,118,133
-0.719438,0.462694,1.165775,120,113,124
-0.716549,0.464542,1.170430,120,122,133
-0.713228,0.466137,1.174450,116,109,132
-0.710700,0.468282,1.179853,114,118,121
-0.708558,0.470718,1.185991,117,114,129
-0.707628,0.474006,1.194275,120,113,128
-0.705444,0.476502,1.200564,112,110,129
-0.704065,0.479589,1.208342,108,107,120
-0.701836,0.482144,1.214781,113,112,125
-0.701252,0.485884,1.224203,105,101,119
-0.700239,0.489388,1.233032,101,104,116
-0.700058,0.493541,1.243494,104,104,116
-0.699875,0.497764,1.254135,104,103,111
-0.697966,0.500825,1.261848,101,101,115
-0.697329,0.504862,1.272018,104,97,111
-0.694511,0.507378,1.278358,97,96,117
-0.693402,0.511200,1.287988,102,90,97
-0.692276,0.515080,1.297764,99,94,113
-0.690252,0.518359,1.306025,97,93,108
-0.686883,0.520679,1.311870,95,93,105
-0.684803,0.524030,1.320312,94,94,101
-0.684914,0.529137,1.333180,98,89,105
-0.683233,0.532946,1.342778,93,88,101
-0.681080,0.536457,1.351624,92,90,100
-0.679799,0.540732,1.362393,86,90,96
-0.678044,0.544710,1.372418,86,88,101
-0.676263,0.548748,1.382591,92,88,99
-0.674914,0.553221,1.393862,88,89,89
-0.674004,0.558151,1.406281,92,85,90
-0.673078,0.563169,1.418924,92,82,86
-0.671666,0.567881,1.430798,83,83,92
-0.669760,0.572271,1.441858,88,81,87
-0.669721,0.578368,1.457219,73,76,83
-0.669681,0.584596,1.472911,80,76,81
-0.669640,0.590959,1.488944,72,70,86
-0.669107,0.597025,1.504226,75,73,78
-0.670550,0.605009,1.524342,70,69,77
-0.667010,0.608626,1.533456,73,64,74
-0.663926,0.612748,1.543841,64,65,74
-0.659801,0.615992,1.552016,65,61,73
-0.655133,0.618801,1.559092,58,59,60
-0.650920,0.622110,1.567429,64,54,59
-0.647158,0.625935,1.577067,53,58,58
-0.643848,0.630296,1.588053,55,52,53
-0.639494,0.633729,1.596704,52,49,55
-0.636088,0.638199,1.607966,48,50,50
-0.630147,0.640206,1.613022,47,44,46
-0.624661,0.642732,1.619388,40,41,45
-0.620114,0.646303,1.628385,34,32,35
-0.618478,0.653041,1.645361,29,28,36
-0.614815,0.657788,1.657322,28,28,28
-0.611098,0.662605,1.669459,23,25,23
-0.609826,0.670240,1.688695,20,18,14
-0.607512,0.676926,1.705540,14,16,19
-0.604137,0.682600,1.719836,8,11,12
-0.600198,0.687789,1.732909,10,10,11
-0.579911,0.674124,1.698481,10,13,12
-0.562699,0.663685,1.672180,12,12,16
-0.552664,0.661529,1.666746,14,12,13
-0.544017,0.660992,1.665393,11,7,13
-0.534949,0.659920,1.662694,12,12,13
-0.268743,0.353140,0.889750,58,63,56
-0.263221,0.351616,0.885909,60,59,53
-0.259757,0.352834,0.888979,60,62,66
-0.255823,0.353447,0.890523,62,58,61
-0.251876,0.354062,0.892072,63,57,56
-0.247485,0.354062,0.892072,61,53,56
-0.243516,0.354679,0.893626,61,55,59
-0.238908,0.354370,0.892848,56,58,61
-0.234309,0.354062,0.892072,64,57,52
-0.229518,0.353447,0.890523,57,56,60
-0.225133,0.353447,0.890523,59,55,54
-0.220749,0.353447,0.890523,61,57,54
-0.216553,0.353754,0.891296,56,57,58
-0.212165,0.353754,0.891296,60,59,62
-0.207957,0.354062,0.892072,57,60,50
-0.203743,0.354370,0.892848,61,59,63
-0.199520,0.354679,0.893626,62,59,57
-0.195121,0.354679,0.893626,60,55,56
-0.190888,0.354988,0.894405,59,56,49
-0.186484,0.354988,0.894405,56,55,53
-0.182399,0.355608,0.895967,56,54,49
-0.177988,0.355608,0.895967,57,52,51
-0.173728,0.355919,0.896750,50,56,54
-0.169313,0.355919,0.896750,53,57,54
-0.164898,0.355919,0.896750,58,52,52
-0.160624,0.356230,0.897535,54,53,54
-0.156342,0.356542,0.898321,62,53,54
-0.152052,0.356854,0.899108,58,53,48
-0.147496,0.356542,0.898321,55,49,51
-0.143199,0.356854,0.899108,52,48,47
-0.138651,0.356542,0.898321,46,46,42
-0.134228,0.356542,0.898321,38,35,36
-0.129579,0.355919,0.896750,47,44,42
-0.125164,0.355919,0.896750,47,45,41
-0.120749,0.355919,0.896750,34,35,36
-0.116334,0.355919,0.896750,32,32,33
-0.111919,0.355919,0.896750,41,37,39
-0.107598,0.356230,0.897535,47,47,47
-0.103179,0.356230,0.897535,42,35,36
-0.098847,0.356542,0.898321,41,46,40
-0.094756,0.357795,0.901478,49,46,49
-0.090477,0.358425,0.903065,49,41,43
-0.085955,0.358110,0.902271,53,49,53
-0.081513,0.358110,0.902271,56,49,49
-0.077003,0.357795,0.901478,50,49,51
-0.072501,0.357481,0.900687,53,49,48
-0.068007,0.357167,0.899897,53,45,48
-0.063521,0.356854,0.899108,53,49,44
-0.059043,0.356542,0.898321,49,49,49
-0.054620,0.356542,0.898321,50,49,45
-0.050197,0.356542,0.898321,51,48,47
-0.045815,0.356854,0.899108,51,49,45
-0.041388,0.356854,0.899108,42,48,41
-0.036994,0.357167,0.899897,54,47,46
-0.032564,0.357167,0.899897,47,49,48
-0.028133,0.357167,0.899897,48,46,45
-0.023703,0.357167,0.899897,46,42,46
-0.019289,0.357481,0.900687,41,47,44
-0.014842,0.357167,0.899897,55,47,46
-0.010421,0.357481,0.900687,48,45,42
-0.005986,0.357481,0.900687,48,45,46
-0.001552,0.357481,0.900687,48,43,41
0.002882,0.357481,0.900687,47,48,44
0.007317,0.357481,0.900687,49,49,48
0.011751,0.357481,0.900687,47,52,42
0.016171,0.357167,0.899897,52,50,56
0.020638,0.357795,0.901478,53,49,51
0.025076,0.357795,0.901478,48,49,43
0.029540,0.358110,0.902271,48,47,48
0.033982,0.358110,0.902271,52,46,45
0.038424,0.358110,0.902271,46,49,51
0.042904,0.358425,0.903065,47,46,49
0.047392,0.358741,0.903861,51,47,48
0.051888,0.359057,0.904658,51,49,51
0.056342,0.359057,0.904658,54,51,48
0.060796,0.359057,0.904658,53,50,44
0.065249,0.359057,0.904658,49,47,48
0.069703,0.359057,0.904658,52,47,49
0.074157,0.359057,0.904658,52,50,48
0.078611,0.359057,0.904658,56,50,49
0.083065,0.359057,0.904658,47,42,37
0.087596,0.359374,0.905457,41,46,51
0.092054,0.359374,0.905457,49,48,48
0.096597,0.359692,0.906256,50,44,50
0.101148,0.360010,0.907058,49,48,40
0.105614,0.360010,0.907058,48,51,47
0.110177,0.360328,0.907860,51,49,41
0.114647,0.360328,0.907860,48,48,48
0.119222,0.360647,0.908665,48,46,43
0.123695,0.360647,0.908665,52,49,44
0.128283,0.360967,0.909470,49,47,46
0.132760,0.360967,0.909470,50,48,44
0.137238,0.360967,0.909470,49,48,54
0.141715,0.360967,0.909470,47,51,46
0.146323,0.361287,0.910277,45,46,47
0.150804,0.361287,0.910277,51,46,44
0.155286,0.361287,0.910277,50,47,48
0.159767,0.361287,0.910277,52,50,45
0.164395,0.361608,0.911085,48,46,50
0.168730,0.361287,0.910277,50,46,46
0.173366,0.361608,0.911085,46,47,53
0.177851,0.361608,0.911085,49,48,52
0.182175,0.361287,0.910277,47,50,50
0.186657,0.361287,0.910277,46,49,54
0.190969,0.360967,0.909470,50,50,52
0.195273,0.360647,0.908665,50,48,50
0.199924,0.360967,0.909470,54,50,49
0.204220,0.360647,0.908665,51,52,54
0.208509,0.360328,0.907860,54,53,47
0.213167,0.360647,0.908665,48,52,53
0.217449,0.360328,0.907860,55,55,49
0.221722,0.360010,0.907058,48,53,53
0.226588,0.360647,0.908665,46,51,53
0.231062,0.360647,0.908665,56,52,53
0.235744,0.360967,0.909470,51,52,50
0.240222,0.360967,0.909470,53,53,54
0.244917,0.361287,0.910277,50,51,57
0.248956,0.360647,0.908665,48,51,46
0.253655,0.360967,0.909470,52,53,53
0.257675,0.360328,0.907860,58,53,53
0.262145,0.360328,0.907860,55,55,57
0.266379,0.360010,0.907058,55,49,54
0.270845,0.360010,0.907058,49,51,56
0.275067,0.359692,0.906256,46,51,52
0.279282,0.359374,0.905457,58,55,53
0.283740,0.359374,0.905457,47,54,44
0.288198,0.359374,0.905457,48,50,52
0.293173,0.360010,0.907058,51,50,57
0.297639,0.360010,0.907058,49,49,54
0.302105,0.360010,0.907058,46,46,44
0.306570,0.360010,0.907058,50,52,49
0.310761,0.359692,0.906256,52,44,44
0.315502,0.360010,0.907058,41,47,42
0.319967,0.360010,0.907058,44,40,45
0.324433,0.360010,0.907058,42,37,43
0.329190,0.360328,0.907860,43,43,42
0.333659,0.360328,0.907860,38,41,40
0.338129,0.360328,0.907860,35,37,38
0.342599,0.360328,0.907860,39,35,42
0.347684,0.360967,0.909470,35,39,40
0.351849,0.360647,0.908665,38,31,34
0.356008,0.360328,0.907860,37,37,42
0.360797,0.360647,0.908665,37,35,36
0.365594,0.360967,0.909470,34,31,31
0.370072,0.360967,0.909470,36,31,33
0.374217,0.360647,0.908665,34,33,38
0.379027,0.360967,0.909470,34,35,39
0.383165,0.360647,0.908665,39,35,36
0.387638,0.360647,0.908665,31,32,32
0.392459,0.360967,0.909470,35,34,35
0.396937,0.360967,0.909470,39,31,34
0.401415,0.360967,0.909470,36,30,33
0.405533,0.360647,0.908665,42,37,45
0.410370,0.360967,0.909470,36,36,39
0.415215,0.361287,0.910277,35,34,41
0.419325,0.360967,0.909470,41,36,40
0.422678,0.360010,0.907058,51,51,43
0.426767,0.359692,0.906256,61,53,51
0.430468,0.359057,0.904658,55,57,63
0.435690,0.359692,0.906256,74,72,69
0.440152,0.359692,0.906256,73,66,69
0.443830,0.359057,0.904658,50,45,51
0.447889,0.358741,0.903861,47,50,51
0.452338,0.358741,0.903861,77,74,75
0.456788,0.358741,0.903861,79,70,72
0.462053,0.359374,0.905457,54,57,67
0.466510,0.359374,0.905457,57,65,63
0.471801,0.360010,0.907058,41,40,50
0.476688,0.360328,0.907860,32,31,39
0.481584,0.360647,0.908665,42,42,40
0.486489,0.360967,0.909470,30,35,37
0.491402,0.361287,0.910277,35,36,38
0.496324,0.361608,0.911085,28,31,38
0.500809,0.361608,0.911085,34,27,29
0.505744,0.361930,0.911895,28,31,43
0.510687,0.362252,0.912707,43,41,43
0.515640,0.362574,0.913519,29,28,29
0.520137,0.362574,0.913519,27,30,29
0.524168,0.362252,0.912707,31,29,33
0.528661,0.362252,0.912707,30,29,33
0.534105,0.362897,0.914334,33,36,39
0.539087,0.363221,0.915149,35,34,35
0.544078,0.363545,0.915966,30,32,35
0.548588,0.363545,0.915966,33,33,30
0.553592,0.363870,0.916785,32,33,33
0.558105,0.363870,0.916785,30,36,41
0.562619,0.363870,0.916785,40,45,33
0.567132,0.363870,0.916785,35,26,37
0.571646,0.363870,0.916785,34,31,37
0.575645,0.363545,0.915966,34,32,38
0.580155,0.363545,0.915966,31,34,31
0.584143,0.363221,0.915149,35,39,40
0.588648,0.363221,0.915149,38,35,34
0.593154,0.363221,0.915149,33,33,37
0.598727,0.363870,0.916785,34,31,36
0.603241,0.363870,0.916785,31,35,36
0.608298,0.364196,0.917605,33,37,35
-0.845540,0.360649,0.897535,85,86,78
-0.844817,0.362233,0.901478,85,83,75
-0.844833,0.364153,0.906256,83,85,87
-0.844100,0.365769,0.910277,87,82,89
-0.842609,0.367072,0.913519,82,83,90
-0.842613,0.369044,0.918426,85,84,84
-0.842618,0.371037,0.923386,82,83,86
-0.843385,0.373389,0.929241,80,86,89
-0.843394,0.375430,0.934319,84,89,84
-0.841861,0.376802,0.937735,86,85,84
-0.841088,0.378532,0.942041,87,84,83
-0.840309,0.380278,0.946386,85,83,89
-0.840300,0.382395,0.951653,80,81,94
-0.840292,0.384535,0.956980,82,81,84
-0.841073,0.387063,0.963270,81,84,86
-0.839483,0.388522,0.966901,82,82,85
-0.838675,0.390361,0.971479,85,82,79
-0.837063,0.391846,0.975173,79,80,80
-0.836237,0.393717,0.979830,84,82,82
-0.836205,0.395986,0.985478,78,84,86
-0.835365,0.397897,0.990234,81,83,92
-0.834518,0.399827,0.995036,74,80,81
-0.835290,0.402560,1.001838,84,85,76
-0.836073,0.405331,1.008734,77,80,86
-0.836453,0.407938,1.015222,78,80,81
-0.838090,0.411194,1.023324,82,84,78
-0.838488,0.413877,1.030002,79,81,74
-0.838892,0.416596,1.036768,75,82,82
-0.838022,0.418712,1.042034,73,77,79
-0.839285,0.421926,1.050033,81,75,80
-0.838838,0.424315,1.055978,80,76,81
-0.837519,0.426289,1.060892,78,79,82
-0.836621,0.428505,1.066406,76,78,82
-0.835278,0.430519,1.071418,70,71,78
-0.833923,0.432552,1.076477,71,72,75
-0.832554,0.434604,1.081584,70,69,71
-0.832937,0.437603,1.089047,64,69,67
-0.831548,0.439703,1.094274,67,65,63
-0.830145,0.441824,1.099552,69,65,68
-0.827837,0.443487,1.103693,68,65,76
-0.825958,0.445404,1.108463,57,66,62
-0.823615,0.447095,1.112671,64,65,63
-0.820362,0.448311,1.115696,66,65,61
-0.819324,0.450762,1.121796,60,65,62
-0.817376,0.452742,1.126724,59,59,61
-0.814513,0.454239,1.130449,61,60,69
-0.809840,0.454740,1.131696,56,60,54
-0.805601,0.455494,1.133572,55,57,57
-0.800020,0.455494,1.133572,62,50,59
-0.792251,0.454239,1.130449,53,54,61
-0.777687,0.449043,1.117519,67,58,69
-0.767587,0.446369,1.110863,98,82,87
-0.761293,0.445886,1.109662,124,126,132
-0.757059,0.446611,1.111465,133,127,139
-0.753628,0.447824,1.114484,127,129,133
-0.750178,0.449043,1.117519,131,128,144
-0.747118,0.450515,1.121183,128,124,139
-0.743630,0.451750,1.124255,132,127,145
-0.741345,0.453739,1.129205,128,127,148
-0.738631,0.455494,1.133572,124,122,148
-0.736304,0.457516,1.138604,121,121,150
-0.733140,0.459044,1.142408,128,121,138
-0.730770,0.461098,1.147519,127,121,137
-0.727562,0.462651,1.151383,124,110,139
-0.724332,0.464214,1.155273,121,119,128
-0.722305,0.466578,1.161157,120,118,130
-0.719030,0.468168,1.165113,121,116,146
-0.716140,0.470036,1.169763,115,119,131
-0.712820,0.471649,1.173778,114,118,127
-0.710292,0.473818,1.179175,109,118,127
-0.707740,0.476007,1.184622,113,112,134
-0.706805,0.479327,1.192886,107,111,123
-0.705031,0.482131,1.199862,116,111,121
-0.703650,0.485252,1.207631,111,108,123
-0.701420,0.487836,1.214062,106,104,121
-0.700417,0.491325,1.222744,104,106,113
-0.699398,0.494864,1.231551,101,104,122
-0.699211,0.499058,1.241988,102,106,113
-0.699447,0.503631,1.253369,96,102,117
-0.697537,0.506726,1.261072,99,96,110
-0.696035,0.510175,1.269656,92,99,112
-0.693215,0.512713,1.275973,95,101,114
-0.692532,0.516892,1.286373,95,98,111
-0.691401,0.520811,1.296124,94,92,113
-0.688937,0.523789,1.303535,95,94,107
-0.686006,0.526464,1.310194,99,96,113
-0.683923,0.529848,1.318615,96,93,104
-0.684025,0.535005,1.331450,92,93,98
-0.682340,0.538852,1.341023,87,88,103
-0.680631,0.542754,1.350734,90,90,104
-0.678898,0.546713,1.360587,88,86,96
-0.677139,0.550730,1.370584,90,85,90
-0.674899,0.554434,1.379801,88,86,95
-0.673998,0.559324,1.391971,85,89,95
-0.672621,0.563915,1.403396,84,90,90
-0.671221,0.568582,1.415010,83,82,86
-0.670264,0.573725,1.427811,81,81,85
-0.667882,0.577746,1.437817,77,78,83
-0.667351,0.583470,1.452063,77,73,83
-0.667763,0.590153,1.468693,75,75,79
-0.667702,0.596558,1.484634,73,69,82
-0.667639,0.603104,1.500925,71,71,76
-0.669556,0.611605,1.522081,71,67,70
-0.665022,0.614339,1.528886,69,70,71
-0.661438,0.618023,1.538054,57,64,69
-0.657810,0.621752,1.547334,62,59,69
-0.653643,0.625052,1.555545,57,57,63
-0.648443,0.627430,1.561465,56,55,61
-0.645669,0.632242,1.573439,58,50,57
-0.644346,0.638608,1.589283,53,52,59
-0.640990,0.643091,1.600440,48,50,63
-0.637587,0.647638,1.611755,48,48,44
-0.631637,0.649679,1.616836,50,43,49
-0.627136,0.653283,1.625804,41,41,43
-0.622585,0.656927,1.634872,28,31,35
-0.618975,0.661672,1.646681,27,24,29
-0.613824,0.664874,1.654649,26,25,27
-0.610601,0.670279,1.668101,24,25,27
-0.609324,0.677996,1.687306,16,19,18
-0.607007,0.684754,1.704123,14,14,14
-0.603631,0.690489,1.718396,8,9,10
-0.600705,0.696909,1.734374,11,13,12
-0.578475,0.680795,1.694273,13,12,10
-0.559960,0.668648,1.664043,13,15,15
-0.554918,0.672466,1.673544,11,14,11
-0.545345,0.670824,1.669459,12,14,15
-0.265077,0.346988,0.863537,56,59,54
-0.263040,0.349934,0.870868,59,57,54
-0.259855,0.351425,0.874580,60,61,55
-0.256424,0.352628,0.877572,63,57,60
-0.252535,0.353232,0.879077,63,57,62
-0.248633,0.353838,0.880586,60,55,57
-0.244298,0.353838,0.880586,58,52,59
-0.240375,0.354447,0.882100,60,58,56
-0.235830,0.354142,0.881342,54,57,55
-0.231094,0.353535,0.879830,59,58,56
-0.226568,0.353232,0.879077,61,58,59
-0.222240,0.353232,0.879077,60,60,54
-0.218099,0.353535,0.879830,59,56,52
-0.213950,0.353838,0.880586,59,56,54
-0.209615,0.353838,0.880586,63,57,56
-0.205456,0.354142,0.881342,60,62,53
-0.201463,0.354752,0.882859,60,55,56
-0.197117,0.354752,0.882859,62,57,52
-0.192936,0.355057,0.883619,57,50,51
-0.188748,0.355363,0.884381,59,58,57
-0.184553,0.355670,0.885144,52,56,48
-0.180351,0.355977,0.885909,62,57,52
-0.175990,0.355977,0.885909,59,55,55
-0.171776,0.356285,0.886674,53,52,56
-0.167556,0.356593,0.887441,58,58,50
-0.163187,0.356593,0.887441,53,55,47
-0.158955,0.356902,0.888210,45,54,53
-0.154716,0.357211,0.888979,56,58,54
-0.150600,0.357831,0.890523,56,52,54
-0.146216,0.357831,0.890523,47,47,47
-0.141832,0.357831,0.890523,49,46,46
-0.137328,0.357521,0.889750,48,47,41
-0.132948,0.357521,0.889750,44,42,40
-0.128567,0.357521,0.889750,47,44,46
-0.124079,0.357211,0.888979,47,44,42
-0.119703,0.357211,0.888979,45,42,40
-0.115326,0.357211,0.888979,36,38,44
-0.110949,0.357211,0.888979,41,42,43
-0.106665,0.357521,0.889750,46,44,48
-0.102373,0.357831,0.890523,45,41,39
-0.098074,0.358142,0.891296,46,45,49
-0.093849,0.358766,0.892848,48,45,43
-0.089453,0.358766,0.892848,50,47,47
-0.085132,0.359078,0.893626,54,50,53
-0.080662,0.358766,0.892848,55,49,52
-0.076134,0.358142,0.891296,53,54,53
-0.071683,0.357831,0.890523,44,46,44
-0.067240,0.357521,0.889750,49,47,44
-0.062806,0.357211,0.888979,50,48,50
-0.058378,0.356902,0.888210,49,48,46
-0.054005,0.356902,0.888210,48,46,45
-0.049632,0.356902,0.888210,44,48,46
-0.045299,0.357211,0.888979,47,43,43
-0.040922,0.357211,0.888979,44,47,46
-0.036577,0.357521,0.889750,49,46,45
-0.032197,0.357521,0.889750,49,46,45
-0.027792,0.357211,0.888979,48,48,48
-0.023436,0.357521,0.889750,42,46,46
-0.019055,0.357521,0.889750,42,45,42
-0.014687,0.357831,0.890523,49,44,42
-0.010303,0.357831,0.890523,46,42,43
-0.005914,0.357521,0.889750,47,44,51
-0.001534,0.357831,0.890523,47,49,51
0.002850,0.357831,0.890523,52,48,45
0.007240,0.358142,0.891296,45,46,44
0.011628,0.358142,0.891296,46,48,44
0.016003,0.357831,0.890523,50,54,46
0.020405,0.358142,0.891296,46,49,42
0.024814,0.358454,0.892072,50,51,46
0.029206,0.358454,0.892072,47,47,43
0.033598,0.358454,0.892072,45,45,42
0.037990,0.358454,0.892072,52,48,43
0.042382,0.358454,0.892072,45,45,44
0.046855,0.359078,0.893626,51,50,51
0.051300,0.359391,0.894405,48,47,48
0.055703,0.359391,0.894405,49,46,45
0.060159,0.359705,0.895185,44,41,42
0.064510,0.359391,0.894405,47,47,51
0.068913,0.359391,0.894405,50,48,47
0.073253,0.359078,0.893626,49,46,52
0.077720,0.359391,0.894405,48,46,48
0.082124,0.359391,0.894405,45,42,43
0.086602,0.359705,0.895185,46,46,46
0.091089,0.360019,0.895967,48,48,46
0.095500,0.360019,0.895967,47,49,45
0.099999,0.360334,0.896750,53,51,48
0.104414,0.360334,0.896750,51,47,51
0.108829,0.360334,0.896750,49,50,49
0.113343,0.360649,0.897535,51,47,53
0.117865,0.360965,0.898321,49,48,53
0.122287,0.360965,0.898321,44,47,45
0.126710,0.360965,0.898321,48,48,54
0.131248,0.361281,0.899108,48,45,47
0.135674,0.361281,0.899108,51,46,50
0.140101,0.361281,0.899108,47,48,45
0.144654,0.361598,0.899897,49,47,51
0.148954,0.361281,0.899108,52,48,42
0.153515,0.361598,0.899897,43,47,46
0.157945,0.361598,0.899897,45,43,46
0.162376,0.361598,0.899897,43,45,43
0.166953,0.361915,0.900687,47,47,51
0.171387,0.361915,0.900687,48,49,45
0.175821,0.361915,0.900687,44,46,48
0.180256,0.361915,0.900687,47,47,47
0.184528,0.361598,0.899897,47,50,50
0.188793,0.361281,0.899108,51,48,52
0.193050,0.360965,0.898321,47,49,51
0.197473,0.360965,0.898321,55,53,50
0.201719,0.360649,0.897535,51,50,49
0.206318,0.360965,0.898321,46,45,50
0.210557,0.360649,0.897535,53,53,52
0.214787,0.360334,0.896750,53,48,51
0.219394,0.360649,0.897535,50,51,51
0.223813,0.360649,0.897535,53,52,53
0.228432,0.360965,0.898321,52,51,54
0.232854,0.360965,0.898321,49,47,51
0.237485,0.361281,0.899108,49,52,51
0.241912,0.361281,0.899108,59,52,52
0.246122,0.360965,0.898321,50,52,50
0.250545,0.360965,0.898321,53,52,50
0.254745,0.360649,0.897535,55,56,52
0.259163,0.360649,0.897535,54,55,57
0.263352,0.360334,0.896750,54,53,53
0.267533,0.360019,0.895967,52,53,50
0.271707,0.359705,0.895185,54,52,51
0.276114,0.359705,0.895185,56,53,55
0.280277,0.359391,0.894405,46,49,53
0.284680,0.359391,0.894405,52,53,51
0.289336,0.359705,0.895185,48,49,47
0.294000,0.360019,0.895967,49,48,48
0.298411,0.360019,0.895967,55,47,48
0.302822,0.360019,0.895967,43,44,54
0.306965,0.359705,0.895185,36,43,44
0.311644,0.360019,0.895967,42,43,44
0.316331,0.360334,0.896750,44,43,47
0.320746,0.360334,0.896750,37,42,38
0.325161,0.360334,0.896750,39,36,40
0.329576,0.360334,0.896750,42,34,36
0.334283,0.360649,0.897535,37,36,45
0.338999,0.360965,0.898321,38,32,32
0.343421,0.360965,0.898321,34,32,34
0.347844,0.360965,0.898321,35,34,35
0.351959,0.360649,0.897535,35,34,37
0.356689,0.360965,0.898321,28,32,31
0.361112,0.360965,0.898321,31,34,34
0.365535,0.360965,0.898321,31,34,36
0.369958,0.360965,0.898321,36,34,35
0.374380,0.360965,0.898321,38,39,33
0.379135,0.361281,0.899108,36,35,39
0.383226,0.360965,0.898321,29,32,40
0.388328,0.361598,0.899897,28,30,35
0.392415,0.361281,0.899108,31,32,32
0.396841,0.361281,0.899108,34,34,32
0.401268,0.361281,0.899108,32,35,30
0.405339,0.360965,0.898321,32,34,36
0.410121,0.361281,0.899108,35,35,40
0.414184,0.360965,0.898321,39,41,41
0.417875,0.360334,0.896750,48,51,58
0.421921,0.360019,0.895967,65,58,61
0.426332,0.360019,0.895967,64,65,71
0.431120,0.360334,0.896750,70,69,68
0.435916,0.360649,0.897535,67,64,67
0.439566,0.360019,0.895967,57,60,53
0.443589,0.359705,0.895185,60,55,56
0.447606,0.359391,0.894405,72,65,75
0.452009,0.359391,0.894405,73,66,73
0.457210,0.360019,0.895967,65,66,69
0.462025,0.360334,0.896750,64,63,65
0.466848,0.360649,0.897535,42,49,50
0.471267,0.360649,0.897535,33,37,38
0.476102,0.360965,0.898321,28,33,40
0.480946,0.361281,0.899108,32,33,37
0.485372,0.361281,0.899108,37,37,38
0.490229,0.361598,0.899897,34,35,37
0.494659,0.361598,0.899897,35,34,39
0.499528,0.361915,0.900687,31,30,30
0.504405,0.362233,0.901478,34,34,36
0.509291,0.362552,0.902271,32,33,35
0.513733,0.362552,0.902271,26,32,34
0.517720,0.362233,0.901478,27,32,35
0.522158,0.362233,0.901478,32,33,38
0.526596,0.362233,0.901478,37,34,36
0.531969,0.362871,0.903065,29,37,35
0.537361,0.363511,0.904658,33,33,34
0.541815,0.363511,0.904658,36,34,30
0.546269,0.363511,0.904658,30,35,34
0.551209,0.363832,0.905457,35,37,38
0.555667,0.363832,0.905457,35,36,33
0.560125,0.363832,0.905457,32,33,32
0.565081,0.364153,0.906256,33,30,34
0.569543,0.364153,0.906256,31,34,31
0.573498,0.363832,0.905457,27,31,29
0.577446,0.363511,0.904658,35,35,33
0.581900,0.363511,0.904658,36,32,35
0.586871,0.363832,0.905457,31,32,33
0.591852,0.364153,0.906256,28,34,35
0.596313,0.364153,0.906256,39,35,37
0.600775,0.364153,0.906256,32,34,34
-0.845540,0.365068,0.897535,86,84,92
-0.845560,0.366994,0.902271,78,86,84
-0.845580,0.368941,0.907058,76,81,87
-0.844849,0.370579,0.911085,86,87,88
-0.844112,0.372232,0.915149,88,86,88
-0.843368,0.373900,0.919249,83,87,86
-0.842618,0.375583,0.923386,80,84,85
-0.843385,0.377964,0.929241,85,89,82
-0.843394,0.380029,0.934319,82,78,83
-0.841861,0.381419,0.937735,87,82,87
-0.840317,0.382819,0.941176,80,83,87
-0.838761,0.384229,0.944643,85,78,80
-0.838744,0.386363,0.949891,82,86,77
-0.838727,0.388522,0.955198,88,87,88
-0.840284,0.391438,0.962366,79,83,85
-0.839483,0.393282,0.966901,78,81,82
-0.838675,0.395144,0.971479,79,82,82
-0.837063,0.396647,0.975173,83,79,80
-0.835439,0.398161,0.978895,81,84,83
-0.835402,0.400453,0.984532,76,85,80
-0.834560,0.402384,0.989279,86,83,89
-0.833709,0.404334,0.994072,77,84,79
-0.834475,0.407095,1.000861,81,80,81
-0.836073,0.410297,1.008734,84,82,85
-0.836453,0.412937,1.015222,78,79,79
-0.837672,0.416024,1.022814,77,83,79
-0.838488,0.418948,1.030002,83,78,82
-0.838892,0.421700,1.036768,74,79,79
-0.838022,0.423842,1.042034,79,79,76
-0.839285,0.427096,1.050033,76,81,89
-0.838407,0.429293,1.055434,75,77,78
-0.837086,0.431289,1.060344,77,75,77
-0.835753,0.433305,1.065298,70,74,71
-0.834843,0.435566,1.070858,71,74,72
-0.833485,0.437622,1.075912,73,69,75
-0.831677,0.439465,1.080445,69,69,65
-0.832054,0.442495,1.087892,62,70,64
-0.831105,0.444853,1.093691,64,67,60
-0.829257,0.446758,1.098375,66,66,73
-0.827837,0.448921,1.103693,69,61,61
-0.825512,0.450618,1.107864,65,65,67
-0.823169,0.452328,1.112068,62,62,63
-0.820362,0.453803,1.115696,59,59,64
-0.818877,0.456035,1.121183,56,64,61
-0.816928,0.458038,1.126106,61,60,61
-0.813617,0.459298,1.129205,60,59,63
-0.808948,0.459804,1.130449,54,54,58
-0.805601,0.461074,1.133572,56,59,61
-0.800463,0.461329,1.134198,53,53,53
-0.792688,0.460058,1.131072,58,56,57
-0.779386,0.455538,1.119959,64,59,68
-0.768003,0.452083,1.111465,87,77,73
-0.761293,0.451349,1.109662,128,113,133
-0.756649,0.451838,1.110863,124,127,137
-0.752810,0.452819,1.113274,132,126,137
-0.749770,0.454298,1.116910,124,124,138
-0.746710,0.455786,1.120570,121,121,136
-0.743223,0.457034,1.123639,128,123,136
-0.740529,0.458793,1.127963,131,126,138
-0.737408,0.460311,1.131696,124,123,146
-0.735080,0.462352,1.136712,134,123,137
-0.732732,0.464410,1.141772,123,123,135
-0.729954,0.466226,1.146237,124,117,141
-0.726747,0.467794,1.150092,122,117,132
-0.723925,0.469637,1.154623,112,119,130
-0.721488,0.471761,1.159844,113,114,137
-0.718214,0.473366,1.163792,114,104,133
-0.714918,0.474983,1.167766,114,113,134
-0.712412,0.477155,1.173107,116,112,125
-0.709476,0.479073,1.177821,115,110,129
-0.706924,0.481283,1.183255,112,112,125
-0.705984,0.484637,1.191501,112,113,123
-0.703796,0.487183,1.197761,111,110,125
-0.702823,0.490620,1.206211,107,108,125
-0.701006,0.493521,1.213344,107,107,116
-0.699999,0.497049,1.222016,101,105,118
-0.698560,0.500327,1.230075,106,99,114
-0.697943,0.504257,1.239737,100,99,109
-0.698168,0.508869,1.251076,96,99,110
-0.696254,0.511991,1.258751,103,98,105
-0.695174,0.515788,1.268087,99,94,105
-0.693647,0.519318,1.276767,98,95,105
-0.692098,0.522898,1.285567,96,96,105
-0.690964,0.526859,1.295306,96,98,107
-0.688499,0.529870,1.302708,96,93,104
-0.686006,0.532915,1.310194,92,94,107
-0.683483,0.535995,1.317768,97,92,95
-0.682254,0.540158,1.328003,88,93,99
-0.681005,0.544387,1.338398,89,88,104
-0.679736,0.548682,1.348958,93,86,85
-0.677999,0.552679,1.358784,93,90,99
-0.676235,0.556734,1.368755,89,86,96
-0.672637,0.559346,1.375177,83,83,91
-0.672174,0.564645,1.388203,87,84,94
-0.670329,0.568878,1.398612,81,84,98
-0.668915,0.573570,1.410147,79,85,89
-0.667940,0.578741,1.422860,74,78,88
-0.665550,0.582783,1.432796,81,76,79
-0.664998,0.588537,1.446943,74,74,83
-0.665857,0.595678,1.464500,77,75,82
-0.665295,0.601691,1.479282,67,68,74
-0.664721,0.607826,1.494366,69,61,73
-0.667081,0.616811,1.516456,74,64,69
-0.663046,0.620018,1.524342,67,61,66
-0.657985,0.622330,1.530026,65,58,66
-0.653866,0.625596,1.538054,58,58,66
-0.650683,0.629845,1.548502,58,57,65
-0.645495,0.632231,1.554367,58,57,58
-0.642712,0.637057,1.566233,50,57,54
-0.641366,0.643442,1.581931,55,51,57
-0.636029,0.645932,1.588053,52,46,53
-0.632125,0.649957,1.597947,48,45,50
-0.628664,0.654545,1.609227,41,42,44
-0.624661,0.658678,1.619388,40,37,40
-0.622089,0.664446,1.633570,30,32,35
-0.618478,0.669242,1.645361,28,24,33
-0.613824,0.673020,1.654649,24,22,26
-0.609610,0.677390,1.665393,16,22,24
-0.606829,0.683493,1.680397,17,19,23
-0.601017,0.686303,1.687306,13,13,15
-0.590767,0.684053,1.681774,7,7,8
-0.582487,0.684053,1.681774,7,9,7
-0.564946,0.673020,1.654649,7,9,8
-0.556799,0.673020,1.654649,9,9,9
-0.556735,0.682934,1.679022,10,9,11
-0.268876,0.350649,0.862086,65,64,56
-0.264409,0.350355,0.861362,58,56,60
-0.261045,0.351535,0.864265,63,56,59
-0.257658,0.352724,0.867187,60,58,61
-0.254033,0.353621,0.869392,59,55,65
-0.249965,0.353921,0.870129,63,56,63
-0.246098,0.354522,0.871608,59,58,60
-0.241807,0.354522,0.871608,55,52,55
-0.237516,0.354522,0.871608,57,57,52
-0.233225,0.354522,0.871608,61,56,57
-0.228739,0.354221,0.870868,63,55,58
-0.224072,0.353621,0.869392,67,62,54
-0.219978,0.353921,0.870129,60,57,54
-0.215877,0.354221,0.870868,57,54,54
-0.211589,0.354221,0.870868,62,59,58
-0.207654,0.354823,0.872349,59,56,57
-0.203360,0.354823,0.872349,53,57,58
-0.199234,0.355125,0.873091,62,63,58
-0.195102,0.355428,0.873835,59,60,56
-0.190800,0.355428,0.873835,54,55,52
-0.186656,0.355731,0.874580,61,55,55
-0.182506,0.356034,0.875326,60,57,57
-0.178197,0.356034,0.875326,55,58,58
-0.173887,0.356034,0.875326,61,58,56
-0.169723,0.356338,0.876074,59,56,54
-0.165551,0.356643,0.876822,53,54,54
-0.161234,0.356643,0.876822,56,56,51
-0.157051,0.356948,0.877572,58,54,55
-0.152993,0.357560,0.879077,56,53,49
-0.148792,0.357866,0.879830,54,52,53
-0.144461,0.357866,0.879830,52,50,39
-0.140249,0.358174,0.880586,54,53,55
-0.135914,0.358174,0.880586,52,53,52
-0.131578,0.358174,0.880586,45,47,46
-0.127352,0.358481,0.881342,44,47,48
-0.122908,0.358174,0.880586,46,45,43
-0.118572,0.358174,0.880586,47,44,45
-0.114237,0.358174,0.880586,50,42,45
-0.109807,0.357866,0.879830,48,47,46
-0.105566,0.358174,0.880586,43,46,45
-0.101231,0.358174,0.880586,40,45,44
-0.096979,0.358481,0.881342,48,45,47
-0.092719,0.358790,0.882100,48,44,45
-0.088301,0.358481,0.881342,52,48,47
-0.084034,0.358790,0.882100,60,49,50
-0.079622,0.358481,0.881342,53,48,54
-0.075219,0.358174,0.880586,53,47,52
-0.070883,0.358174,0.880586,47,50,50
-0.066434,0.357560,0.879077,52,51,49
-0.062106,0.357560,0.879077,48,46,48
-0.057778,0.357560,0.879077,53,44,42
-0.053450,0.357560,0.879077,51,47,48
-0.049122,0.357560,0.879077,51,46,49
-0.044794,0.357560,0.879077,47,47,49
-0.040466,0.357560,0.879077,46,45,50
-0.036138,0.357560,0.879077,48,45,45
-0.031838,0.357866,0.879830,49,44,48
-0.027506,0.357866,0.879830,44,49,48
-0.023174,0.357866,0.879830,47,48,43
-0.018859,0.358174,0.880586,49,47,45
-0.014511,0.357866,0.879830,47,44,43
-0.010188,0.358174,0.880586,52,44,45
-0.005853,0.358174,0.880586,51,47,44
-0.001517,0.358174,0.880586,49,44,46
0.002818,0.358174,0.880586,47,47,42
0.007153,0.358174,0.880586,48,43,39
0.011499,0.358481,0.881342,48,45,44
0.015838,0.358481,0.881342,49,50,44
0.020177,0.358481,0.881342,52,49,43
0.024537,0.358790,0.882100,46,43,49
0.028880,0.358790,0.882100,47,45,50
0.033194,0.358481,0.881342,51,45,47
0.037565,0.358790,0.882100,49,48,45
0.041908,0.358790,0.882100,43,45,47
0.046291,0.359098,0.882859,47,49,46
0.050725,0.359718,0.884381,47,49,47
0.055079,0.359718,0.884381,45,48,42
0.059433,0.359718,0.884381,46,48,47
0.063787,0.359718,0.884381,49,50,46
0.068141,0.359718,0.884381,46,49,48
0.072433,0.359408,0.883619,52,46,51
0.076849,0.359718,0.884381,46,48,46
0.081273,0.360028,0.885144,48,48,49
0.085705,0.360339,0.885909,46,50,52
0.090144,0.360650,0.886674,49,46,49
0.094510,0.360650,0.886674,49,47,49
0.098875,0.360650,0.886674,52,51,50
0.103330,0.360962,0.887441,52,49,48
0.107699,0.360962,0.887441,55,50,51
0.112068,0.360962,0.887441,46,47,52
0.116538,0.361275,0.888210,48,47,45
0.120911,0.361275,0.888210,51,46,46
0.125392,0.361588,0.888979,47,47,46
0.129769,0.361588,0.888979,51,43,48
0.134146,0.361588,0.888979,51,47,51
0.138643,0.361901,0.889750,51,47,51
0.143023,0.361901,0.889750,45,46,51
0.147403,0.361901,0.889750,48,48,50
0.151784,0.361901,0.889750,48,48,45
0.156164,0.361901,0.889750,49,47,50
0.160684,0.362216,0.890523,44,48,46
0.165069,0.362216,0.890523,57,47,42
0.169600,0.362530,0.891296,49,51,47
0.173988,0.362530,0.891296,46,49,48
0.178222,0.362216,0.890523,49,51,49
0.182447,0.361901,0.889750,49,47,52
0.186666,0.361588,0.888979,53,51,54
0.190877,0.361275,0.888210,53,53,52
0.195250,0.361275,0.888210,52,49,52
0.199450,0.360962,0.887441,56,52,54
0.203820,0.360962,0.887441,54,49,54
0.208369,0.361275,0.888210,54,50,56
0.212558,0.360962,0.887441,51,49,53
0.216739,0.360650,0.886674,48,50,49
0.221296,0.360962,0.887441,50,50,54
0.225861,0.361275,0.888210,47,48,53
0.230233,0.361275,0.888210,54,52,47
0.234810,0.361588,0.888979,51,51,52
0.239394,0.361901,0.889750,50,54,56
0.243563,0.361588,0.888979,51,54,53
0.247725,0.361275,0.888210,51,51,53
0.252098,0.361275,0.888210,57,50,53
0.256249,0.360962,0.887441,54,51,55
0.260393,0.360650,0.886674,54,52,53
0.264758,0.360650,0.886674,55,53,56
0.268891,0.360339,0.885909,51,53,53
0.273253,0.360339,0.885909,52,50,53
0.277375,0.360028,0.885144,49,52,51
0.281733,0.360028,0.885144,53,52,55
0.286090,0.360028,0.885144,54,48,52
0.290950,0.360650,0.886674,51,50,49
0.295316,0.360650,0.886674,50,48,48
0.299164,0.360028,0.885144,49,46,47
0.303522,0.360028,0.885144,47,44,43
0.308412,0.360650,0.886674,46,45,48
0.312777,0.360650,0.886674,39,43,37
0.317417,0.360962,0.887441,38,39,44
0.321508,0.360650,0.886674,37,36,41
0.325873,0.360650,0.886674,41,34,39
0.330524,0.360962,0.887441,32,38,45
0.334893,0.360962,0.887441,41,40,42
0.339262,0.360962,0.887441,40,32,35
0.343631,0.360962,0.887441,33,30,34
0.348001,0.360962,0.887441,32,33,34
0.352675,0.361275,0.888210,31,29,35
0.356739,0.360962,0.887441,37,35,38
0.361421,0.361275,0.888210,39,35,37
0.365477,0.360962,0.887441,36,32,36
0.369846,0.360962,0.887441,32,35,32
0.374215,0.360962,0.887441,36,34,36
0.378584,0.360962,0.887441,35,34,34
0.383285,0.361275,0.888210,34,37,37
0.387658,0.361275,0.888210,34,31,24
0.392371,0.361588,0.888979,37,31,34
0.396747,0.361588,0.888979,33,33,40
0.401124,0.361588,0.888979,34,33,37
0.405150,0.361275,0.888210,33,37,38
0.409168,0.360962,0.887441,40,46,46
0.413180,0.360650,0.886674,47,45,52
0.417545,0.360650,0.886674,61,59,64
0.421911,0.360650,0.886674,61,57,49
0.426276,0.360650,0.886674,67,67,67
0.431014,0.360962,0.887441,67,65,71
0.435007,0.360650,0.886674,61,63,64
0.438614,0.360028,0.885144,70,61,65
0.442972,0.360028,0.885144,66,63,62
0.447329,0.360028,0.885144,64,59,56
0.452077,0.360339,0.885909,63,61,65
0.456833,0.360650,0.886674,64,60,63
0.461199,0.360650,0.886674,48,50,55
0.465967,0.360962,0.887441,33,38,42
0.471151,0.361588,0.888979,37,35,36
0.475940,0.361901,0.889750,33,30,27
0.480738,0.362216,0.890523,33,32,36
0.485122,0.362216,0.890523,45,43,46
0.489506,0.362216,0.890523,33,41,44
0.493891,0.362216,0.890523,25,34,32
0.498708,0.362530,0.891296,33,36,39
0.503533,0.362846,0.892072,38,33,35
0.508367,0.363161,0.892848,33,32,33
0.512317,0.362846,0.892072,38,41,39
0.516260,0.362530,0.891296,34,33,36
0.521101,0.362846,0.892072,36,35,39
0.526867,0.363795,0.894405,32,36,38
0.531734,0.364112,0.895185,33,32,37
0.536142,0.364112,0.895185,34,37,39
0.541021,0.364430,0.895967,41,44,39
0.545432,0.364430,0.895967,35,38,41
0.549843,0.364430,0.895967,37,36,36
0.554254,0.364430,0.895967,32,35,39
0.558665,0.364430,0.895967,34,31,34
0.563076,0.364430,0.895967,33,41,40
0.567487,0.364430,0.895967,32,38,42
0.571899,0.364430,0.895967,33,35,29
0.576310,0.364430,0.895967,30,33,38
0.580721,0.364430,0.895967,33,33,38
0.585132,0.364430,0.895967,34,38,33
0.589543,0.364430,0.895967,36,43,42
0.593436,0.364112,0.895185,34,35,42
-0.847022,0.370134,0.899108,80,86,87
-0.845560,0.371436,0.902271,84,89,80
-0.845580,0.373407,0.907058,80,84,88
-0.845600,0.375398,0.911895,82,81,83
-0.844866,0.377074,0.915966,89,88,93
-0.844124,0.378765,0.920074,87,88,81
-0.843377,0.380471,0.924218,86,83,84
-0.844150,0.382886,0.930084,85,83,83
-0.843394,0.384629,0.934319,78,79,93
-0.841861,0.386036,0.937735,78,86,83
-0.840317,0.387452,0.941176,86,84,81
-0.838761,0.388879,0.944643,79,83,88
-0.838744,0.391040,0.949891,84,82,84
-0.839509,0.393591,0.956088,82,89,82
-0.840284,0.396176,0.962366,85,83,84
-0.839483,0.398042,0.966901,79,85,87
-0.839470,0.400306,0.972400,84,84,81
-0.837860,0.401830,0.976101,79,85,84
-0.835439,0.402980,0.978895,81,80,83
-0.834601,0.404912,0.983588,80,83,84
-0.834560,0.407255,0.989279,78,78,85
-0.834518,0.409625,0.995036,85,80,77
-0.835290,0.412425,1.001838,82,83,86
-0.836073,0.415264,1.008734,84,81,77
-0.836453,0.417935,1.015222,75,80,83
-0.837672,0.421060,1.022814,78,81,78
-0.838488,0.424019,1.030002,85,78,77
-0.838892,0.426804,1.036768,71,77,82
-0.838448,0.429190,1.042563,76,75,75
-0.839285,0.432265,1.050033,79,76,72
-0.837976,0.434265,1.054892,76,79,75
-0.837086,0.436510,1.060344,75,76,75
-0.835319,0.438322,1.064746,72,75,74
-0.834407,0.440608,1.070300,70,75,73
-0.833049,0.442687,1.075348,67,73,76
-0.831240,0.444551,1.079876,67,63,70
-0.831613,0.447613,1.087316,71,64,67
-0.830662,0.449998,1.093108,63,65,70
-0.829257,0.452166,1.098375,67,63,66
-0.827392,0.454111,1.103099,65,63,65
-0.825067,0.455826,1.107266,61,62,68
-0.823169,0.457803,1.112068,65,60,70
-0.819916,0.459047,1.115089,57,61,65
-0.818429,0.461303,1.120570,56,61,58
-0.816032,0.463073,1.124871,57,60,64
-0.813169,0.464602,1.128583,55,58,63
-0.808948,0.465370,1.130449,51,53,54
-0.805157,0.466398,1.132946,51,54,55
-0.800463,0.466913,1.134198,55,53,50
-0.794001,0.466398,1.132946,50,54,59
-0.782375,0.462820,1.124255,53,55,68
-0.769670,0.458548,1.113879,65,61,72
-0.762118,0.457307,1.110863,120,117,112
-0.756649,0.457307,1.110863,134,122,134
-0.752810,0.458300,1.113274,127,122,137
-0.749362,0.459546,1.116303,122,123,139
-0.746302,0.461051,1.119959,122,120,137
-0.742409,0.462060,1.122409,121,122,142
-0.739716,0.463836,1.126724,125,118,133
-0.736596,0.465370,1.130449,120,119,137
-0.734267,0.467430,1.135454,122,119,133
-0.731917,0.469509,1.140503,119,117,137
-0.728732,0.471080,1.144319,123,115,124
-0.725933,0.472926,1.148804,119,113,135
-0.723111,0.474787,1.153325,109,115,131
-0.721081,0.477201,1.159189,115,111,132
-0.717807,0.478824,1.163132,113,111,131
-0.714511,0.480459,1.167102,115,108,134
-0.711192,0.482104,1.171098,118,106,129
-0.709069,0.484593,1.177145,108,108,119
-0.706516,0.486828,1.182573,113,108,122
-0.705165,0.489934,1.190119,114,107,138
-0.702566,0.492218,1.195667,103,107,125
-0.701586,0.495684,1.204087,113,106,131
-0.700591,0.499200,1.212627,112,99,114
-0.700417,0.503365,1.222744,103,101,117
-0.699398,0.506990,1.231551,108,99,112
-0.698365,0.510669,1.240486,101,96,118
-0.697317,0.514401,1.249552,101,104,104
-0.694974,0.517236,1.256439,105,91,115
-0.694745,0.521709,1.267304,98,92,104
-0.693647,0.525604,1.276767,92,94,105
-0.691665,0.528895,1.284762,93,94,92
-0.690093,0.532564,1.293672,93,95,102
-0.687626,0.535603,1.301056,95,93,108
-0.685131,0.538677,1.308523,90,91,104
-0.683045,0.542135,1.316922,94,92,98
-0.681372,0.545990,1.326286,92,88,96
-0.679675,0.549900,1.335784,89,91,100
-0.678844,0.554594,1.347186,84,88,100
-0.676654,0.558259,1.356090,85,85,95
-0.674435,0.561973,1.365113,80,86,92
-0.671737,0.565359,1.373336,86,81,92
-0.671266,0.570707,1.386327,83,82,97
-0.668961,0.574589,1.395758,84,81,88
-0.668455,0.580114,1.409179,82,81,83
-0.667015,0.584935,1.420889,78,78,88
-0.666015,0.590249,1.433798,77,77,84
-0.664998,0.595660,1.446943,75,69,82
-0.665382,0.602458,1.463456,73,70,73
-0.663382,0.607222,1.475028,73,69,73
-0.662790,0.613396,1.490025,73,67,63
-0.664625,0.621978,1.510872,70,67,71
-0.659615,0.624276,1.516456,65,61,71
-0.655054,0.627057,1.523211,61,61,67
-0.651424,0.630804,1.532311,59,58,67
-0.648725,0.635550,1.543841,57,58,62
-0.644032,0.638432,1.550842,56,53,61
-0.642222,0.644276,1.565038,54,50,61
-0.641366,0.651231,1.581931,51,55,51
-0.637015,0.654764,1.590515,46,47,46
-0.631633,0.657312,1.596704,51,46,48
-0.628172,0.661948,1.607966,40,43,45
-0.623185,0.665076,1.615563,37,39,49
-0.619132,0.669292,1.625804,32,32,34
-0.616501,0.675177,1.640100,28,25,27
-0.612835,0.680069,1.651984,29,25,25
-0.603245,0.678431,1.648004,23,22,26
-0.598980,0.682818,1.658662,18,20,26
-0.588436,0.680069,1.651984,10,12,11
-0.573377,0.671954,1.632271,4,5,8
-0.565791,0.672489,1.633570,7,8,10
-0.564036,0.680069,1.651984,8,7,8
-0.559507,0.684478,1.662694,9,10,4
-0.269050,0.349605,0.849240,65,61,65
-0.266635,0.351936,0.854902,64,64,58
-0.261337,0.350476,0.851355,66,61,61
-0.257788,0.351350,0.853479,69,61,62
-0.253797,0.351643,0.854190,59,61,70
-0.249799,0.351936,0.854902,55,58,55
